ply
format ascii 1.0
element vertex 741
property float x
property float y
property float z
property float nx
property float ny
property float nz
property uchar diffuse_red
property uchar diffuse_green
property uchar diffuse_blue
end_header
3.0401 0.969104 9.84399 0.461089 -0.757735 0.461773 154 152 149
3.02352 0.980195 9.84997 0.456337 -0.545533 0.702958 158 157 153
2.90687 1.1271 9.80134 -0.324034 -0.388021 0.86281 161 159 155
2.88574 1.09757 9.83169 0.611442 -0.166494 0.773575 148 152 152
2.82083 1.05131 9.90327 0.0893718 -0.57114 0.815973 78 92 100
2.67843 0.959533 10.0564 0.355918 -0.735262 0.576812 155 156 158
2.64792 0.984184 10.0588 0.0555511 -0.891228 0.45014 152 155 157
2.26424 0.853947 10.378 0.130128 -0.593168 0.794493 127 152 165
2.23879 0.867191 10.3894 0.450253 -0.586712 0.673083 126 154 167
2.215 0.875111 10.4005 0.115259 -0.560189 0.820307 121 148 162
2.1834 0.900329 10.403 -0.288299 -0.7098 0.642704 118 145 160
2.1855 0.890392 10.4135 -0.225243 -0.635709 0.738336 118 145 160
2.15363 0.910897 10.4037 -0.404028 -0.635163 0.658277 114 141 156
1.50985 0.613099 11.0192 0.596986 -0.641711 0.481472 161 171 176
1.49359 0.60672 11.0405 0.702192 -0.495195 0.511575 159 167 171
1.49323 0.612544 11.0383 0.543848 -0.0688882 0.836351 160 167 171
1.48659 0.575599 11.0443 0.433562 -0.303466 0.848488 156 164 167
1.47829 0.590678 11.0371 0.641504 -0.0418211 0.765979 156 164 167
1.4579 0.591289 11.0556 0.788021 -0.615288 -0.0210601 88 91 95
1.30254 0.516177 11.2057 0.453052 -0.460746 0.763189 147 154 158
1.26257 0.53052 11.2342 0.280426 -0.163894 0.94578 99 119 126
1.27726 0.502386 11.2223 0.284823 -0.193573 0.938832 130 145 152
1.22555 0.532393 11.2445 0.341634 -0.219209 0.913911 91 104 110
1.22451 0.532565 11.2449 0.343605 -0.213732 0.914469 92 104 109
1.19425 0.527244 11.2572 0.381276 -0.222178 0.897366 125 129 130
0.787985 0.118172 11.8282 -0.171123 -0.940302 -0.294192 210 211 215
0.655595 0.0572615 11.9391 -0.191726 -0.745406 0.638444 34 34 35
0.593192 0.113962 11.9448 0.377978 -0.801234 0.463851 37 38 40
0.560771 0.114086 11.9707 0.389159 -0.697287 0.601952 104 128 139
0.574398 0.113761 11.9583 0.375998 -0.78648 0.489975 71 83 90
0.534278 0.116935 11.9692 0.0555706 -0.465244 0.883436 102 126 138
0.0609104 0.481016 11.9702 0.732909 -0.408351 0.544145 73 91 103
0.0669685 0.460561 11.9495 0.83752 -0.156635 0.523475 74 91 103
0.239345 0.0422695 12.1958 0.543589 -0.209743 0.812723 116 139 153
0.20915 0.0350733 12.2298 0.305262 -0.666382 0.680258 110 132 145
0.223982 0.0375786 12.2153 0.542045 -0.516458 0.662916 115 135 149
0.15396 0.0566623 12.2497 0.128683 -0.790457 0.598847 96 119 131
0.133367 0.0452999 12.2416 0.138931 -0.781276 0.608528 99 113 121
0.134574 0.0596684 12.2621 0.0749102 -0.857303 0.509333 93 112 122
0.108787 0.0538171 12.2527 0.190889 -0.858351 0.476229 136 140 141
-1.00657 0.441659 12.5877 0.00299782 -0.680467 0.732773 153 153 151
-1.08329 0.444072 12.6239 0.597217 -0.265554 0.756844 82 99 109
-1.10267 0.378315 12.6916 0.273956 -0.7204 0.637159 95 120 131
-1.14095 0.387864 12.7098 0.0106558 -0.809819 0.586583 54 61 69
-1.1769 0.400033 12.7265 0.028078 -0.780224 0.62487 35 34 37
-1.2177 0.411844 12.7424 -0.0879899 -0.824904 0.558383 78 77 78
-1.24215 0.424778 12.7596 -0.0764668 -0.807282 0.585191 134 133 132
-1.2424 0.419086 12.7561 -0.0648843 -0.79431 0.604038 143 143 141
-1.222 0.410023 12.7417 -0.06352 -0.787925 0.612486 87 85 86
-1.25336 0.38452 12.7739 0.9262 -0.11828 0.358 155 155 154
4.67317 1.57107 8.48743 0.766367 -0.587579 0.259679 132 131 129
4.42101 1.48708 8.67114 -0.00186846 -0.420514 0.907284 100 121 133
4.42225 1.48715 8.67515 0.156404 -0.287607 0.944892 97 118 130
4.40261 1.52753 8.67939 0.0249409 -0.0128156 0.999607 74 93 101
4.35497 1.52711 8.68086 0.403299 -0.0456483 0.913929 91 98 100
4.31092 1.54357 8.68779 0.485682 -0.0948259 0.868977 154 154 150
3.81096 1.42314 9.07112 -0.437695 -0.534103 0.723296 156 156 153
3.78333 1.44712 9.07012 -0.194676 -0.560672 0.804828 135 135 133
3.74292 1.12917 9.34192 0.250342 -0.617614 0.745574 152 151 148
3.76492 1.1411 9.34784 0.317172 -0.597816 0.736219 152 151 149
3.73141 1.13032 9.35444 0.234764 -0.637614 0.733713 131 129 126
3.7085 1.13257 9.37323 0.503879 -0.656631 0.561197 138 136 131
3.69009 1.12824 9.39116 0.498512 -0.729149 0.468858 158 158 155
3.49893 1.25947 9.39718 -0.248407 -0.41772 0.873959 157 157 154
3.48163 1.28223 9.40344 -0.351484 -0.321792 0.879152 150 150 147
3.44864 1.28843 9.39587 0.00197074 -0.329843 0.944034 140 140 137
3.29359 1.2538 9.52605 0.804829 -0.497083 0.324282 152 152 151
3.13322 1.02885 9.79574 0.69347 -0.548682 0.466955 94 112 118
3.11548 0.999905 9.82064 0.389545 -0.314441 0.865668 98 111 114
3.11444 1.00996 9.82864 0.567503 -0.637647 0.52091 119 127 127
3.08471 1.00474 9.82778 0.305649 -0.317249 0.897737 140 142 139
3.05442 1.00041 9.84218 0.337383 -0.390551 0.85653 158 157 153
2.90155 1.16083 9.81236 0.412281 -0.611091 0.675716 163 162 159
2.8835 1.1576 9.82924 0.26495 -0.764103 0.588174 152 152 151
2.83827 1.06086 9.91514 0.208595 -0.439621 0.873625 99 120 130
2.8318 1.07965 9.93884 0.145356 -0.51214 0.846513 103 125 135
2.75983 1.05761 9.97637 0.853635 -0.0848384 0.513915 34 34 35
2.75688 0.994281 10.0189 0.237163 -0.42285 0.874615 39 38 39
2.68113 0.97999 10.0806 0.365053 -0.292506 0.883842 155 157 159
2.63934 1.00622 10.0791 0.332845 -0.682697 0.650492 154 156 158
2.28636 0.924536 10.3485 0.633197 -0.694397 0.341869 126 152 165
2.2472 0.903078 10.382 0.432664 -0.585302 0.685728 126 152 165
2.21735 0.893372 10.4186 -0.179205 -0.380983 0.907049 121 146 160
2.23983 0.886387 10.407 0.457323 -0.571159 0.68164 126 153 167
2.20983 0.897794 10.4376 0.335906 -0.656728 0.675185 121 146 160
2.18922 0.90839 10.4306 -0.244 -0.766596 0.593965 120 147 162
1.53397 0.642654 11.0173 0.636951 -0.565026 0.524441 159 166 171
1.51053 0.631683 11.0374 0.561495 -0.0783234 0.823765 158 166 170
1.35818 0.569533 11.1873 0.724803 -0.688776 0.015725 150 155 157
1.32244 0.542842 11.2076 0.689213 -0.531297 0.492655 143 152 155
1.29762 0.530911 11.2236 0.312217 -0.227211 0.92244 122 139 146
1.28084 0.563762 11.233 0.28674 -0.164109 0.943847 95 114 121
1.24523 0.564633 11.243 0.404263 -0.260441 0.876779 93 104 109
1.21229 0.559897 11.2578 0.350438 -0.229065 0.908142 142 143 141
1.21299 0.560057 11.2573 0.349294 -0.221348 0.910494 140 142 140
1.18537 0.554139 11.2716 0.504307 -0.3121 0.805151 164 163 160
0.705757 0.0642742 11.9494 0.555034 -0.691247 0.462725 34 33 33
0.67261 0.0813773 11.9477 -0.138162 -0.675676 0.724136 35 34 36
0.612051 0.125503 11.9511 0.349476 -0.765541 0.540197 37 38 41
0.592356 0.126232 11.9643 0.400164 -0.803007 0.441642 70 83 90
0.574503 0.124547 11.9782 0.466946 -0.767453 0.439292 103 127 139
0.0434174 0.471305 11.9955 0.797255 -0.32528 0.508506 117 121 123
0.0484166 0.468585 11.9926 0.619868 -0.383463 0.684631 109 115 118
0.235442 0.063248 12.2131 0.313338 -0.222913 0.923109 116 138 152
0.233289 0.0428523 12.2361 0.914687 -0.279631 0.291811 114 136 150
0.21366 0.0456771 12.2501 0.685008 -0.468397 0.558003 112 134 147
0.189334 0.0437904 12.2702 -0.230671 -0.917774 0.323237 103 125 138
0.105417 0.069569 12.2729 0.0294372 -0.836353 0.5474 136 140 141
-1.0598 0.468708 12.6288 0.125164 -0.517954 0.846202 112 118 121
-1.09367 0.467426 12.6457 0.609077 -0.283367 0.740762 82 98 107
-1.11127 0.42932 12.6871 0.820542 -0.0758519 0.566532 90 113 125
-1.10471 0.399794 12.7252 0.0864152 -0.781251 0.618206 88 108 120
-1.1403 0.411569 12.742 0.0368787 -0.797037 0.602804 67 79 88
-1.17869 0.423598 12.7583 0.0214818 -0.769962 0.637728 33 33 35
-1.18396 0.424303 12.7589 -0.0172936 -0.756727 0.653502 33 33 35
-1.21483 0.436212 12.775 -0.074299 -0.80494 0.588685 73 71 71
-1.26169 0.422325 12.7893 0.592244 -0.488383 0.640881 151 150 149
4.69707 1.5966 8.48988 0.0365048 -0.997197 0.0653085 122 123 121
4.44016 1.51451 8.67272 0.0627979 -0.352018 0.933884 104 125 137
4.38863 1.5563 8.68747 -0.0517978 -0.466739 0.882877 85 96 101
4.36355 1.54495 8.71412 -0.0911012 -0.964291 0.248685 144 145 142
3.81115 1.44703 9.09071 -0.547498 -0.461324 0.698159 153 153 151
3.78368 1.46929 9.09096 -0.0203512 -0.635842 0.771551 133 133 131
3.75653 1.17319 9.35855 0.870862 -0.481938 0.0966181 148 146 146
3.72963 1.14995 9.37247 0.171938 -0.658313 0.732845 111 109 102
3.6873 1.16857 9.39516 0.168536 -0.617814 0.76805 157 156 153
3.71139 1.14927 9.39366 0.636279 -0.638727 0.432639 154 152 148
3.51706 1.27839 9.41887 -0.571638 -0.573454 0.586839 151 151 148
3.51038 1.28159 9.41537 -0.485958 -0.450081 0.74918 154 154 151
3.46548 1.31517 9.40667 -0.113786 -0.348377 0.930423 130 131 128
3.30995 1.27858 9.53502 0.91958 -0.34593 0.186296 147 147 146
3.19041 1.01732 9.80132 -0.182551 -0.250854 0.950656 105 124 134
3.15545 1.03914 9.80185 0.58488 -0.510153 0.630603 97 115 123
3.13559 1.04349 9.81906 0.683402 -0.59409 0.424286 121 129 129
3.09993 1.016 9.84362 0.658921 -0.606439 0.445033 155 156 152
3.08224 1.01003 9.86715 0.730164 -0.572542 0.372903 160 159 156
2.91972 1.19374 9.80373 0.388537 -0.723545 0.570545 160 159 155
2.88988 1.18465 9.84289 0.777866 -0.481485 0.403853 137 137 133
2.81232 1.07137 9.96091 0.111832 -0.553104 0.825572 92 111 121
2.74489 1.02864 10.0338 0.327909 -0.327105 0.886272 36 35 36
2.69808 1.00969 10.0836 0.036866 -0.743647 0.667555 154 156 154
2.68422 0.998121 10.1067 0.589116 -0.513011 0.624309 156 158 158
2.66625 0.993108 10.1275 0.60509 -0.551569 0.574141 156 157 159
2.30072 0.957913 10.3453 0.706092 -0.495184 0.506188 128 154 168
2.28264 0.953431 10.3663 0.59034 -0.571818 0.569669 127 153 167
2.25862 0.938832 10.3843 0.731521 -0.681286 0.0269518 125 150 163
2.24422 0.906525 10.4186 0.573758 -0.472052 0.669305 127 154 167
2.23584 0.912472 10.4369 0.57834 -0.56032 0.592928 127 153 167
2.20517 0.926025 10.4513 -0.0286853 -0.809161 0.586886 123 148 162
1.56488 0.663821 10.9991 0.5918 -0.630597 0.502116 151 168 176
1.5495 0.658603 11.0177 0.294483 -0.617379 0.729467 160 169 173
1.55531 0.655333 11.0202 0.148496 -0.355749 0.922709 161 170 174
1.53415 0.659272 11.037 0.638882 -0.555273 0.532449 155 162 166
1.5012 0.655214 11.0584 0.536881 -0.163717 0.82762 119 123 127
1.46828 0.641528 11.1002 0.621003 -0.504447 0.599908 113 116 118
1.45045 0.625655 11.0969 0.973368 -0.089266 0.211153 95 97 100
1.43693 0.619375 11.1208 0.693388 -0.520581 0.498205 117 121 123
1.3465 0.56957 11.2056 0.617595 -0.0745377 0.782956 143 151 154
1.33589 0.56752 11.2059 0.678123 -0.58195 0.448869 141 150 153
1.31699 0.561608 11.2234 0.376957 -0.212864 0.901439 114 131 139
1.29991 0.595353 11.2326 0.309013 -0.197653 0.930293 92 107 114
1.2657 0.596068 11.2435 0.345113 -0.220749 0.912232 98 107 110
1.22059 0.563568 11.2778 0.858512 -0.346218 0.378274 161 161 158
1.17678 0.577143 11.2888 0.946113 -0.0137366 0.323544 164 163 160
0.828493 0.134596 11.8587 0.570854 -0.818126 -0.0692523 211 212 216
0.69804 0.0895671 11.9653 -0.252001 -0.833599 0.491536 34 34 35
0.631065 0.137616 11.9565 0.372345 -0.722065 0.583079 37 37 40
0.605998 0.133295 11.9803 0.369452 -0.783446 0.499717 101 122 132
0.211403 0.0582995 12.2726 0.685306 -0.454232 0.569235 112 135 148
0.202426 0.0600169 12.2822 0.581456 -0.646205 0.494295 110 132 146
0.174356 0.0404503 12.313 0.187567 -0.370619 0.909648 97 114 124
0.136326 0.0616977 12.3231 0.0414775 -0.549522 0.834449 135 139 142
-1.00763 0.468388 12.6372 0.126427 -0.515798 0.84733 152 151 150
-1.03743 0.480522 12.6503 0.0779245 -0.57886 0.811695 137 139 139
-1.03326 0.463215 12.6664 -0.00313619 -0.755548 0.655086 128 134 136
-1.10657 0.435867 12.7333 0.568011 -0.651723 0.502613 93 116 128
-1.1094 0.428049 12.7569 0.223381 -0.764974 0.604083 96 121 133
-1.24048 0.450408 12.7918 0.241288 -0.785852 0.569399 100 98 97
-1.2413 0.447701 12.7891 0.89665 -0.31784 0.308215 106 104 103
4.71422 1.63187 8.4789 0.584563 -0.466257 0.663996 141 141 139
4.69884 1.61793 8.51066 0.574956 -0.685472 0.446715 148 148 147
4.67219 1.56629 8.5532 0.146144 -0.370745 0.917164 157 157 154
4.46014 1.55475 8.69246 -0.0520201 -0.25275 0.966132 78 96 102
4.42186 1.56187 8.68573 -0.286586 -0.21856 0.932792 73 89 95
3.84461 1.44768 9.11693 -0.464333 -0.424173 0.777478 155 155 152
3.81757 1.47497 9.12072 -0.491839 -0.527014 0.693073 154 153 150
3.78336 1.49512 9.10679 0.225614 -0.558719 0.79808 139 139 137
3.75458 1.51398 9.11423 0.0622488 -0.797659 0.599888 146 146 143
3.78217 1.17857 9.36748 0.302512 -0.66444 0.683378 152 151 149
3.76031 1.17978 9.39361 -0.0347363 -0.442206 0.896241 114 113 110
3.72134 1.18066 9.41311 0.60406 -0.532885 0.592574 154 153 150
3.5399 1.27031 9.45012 -0.305751 -0.773221 0.555559 156 156 153
3.49701 1.3096 9.4151 -0.456563 -0.4189 0.784903 153 153 150
3.33285 1.29376 9.53689 0.637032 -0.70793 0.304999 151 151 150
3.21462 1.04933 9.79374 -0.239375 -0.290828 0.926347 119 141 153
3.17944 1.04098 9.81764 0.333435 -0.224872 0.915562 102 119 125
3.15485 1.06183 9.82057 0.52104 -0.434016 0.734947 127 133 134
3.11936 1.04014 9.84056 0.69144 -0.602357 0.398844 160 160 155
2.94207 1.24002 9.81366 0.882378 -0.464518 0.0750433 160 159 155
2.91261 1.20184 9.84268 0.586073 -0.804529 0.0961848 137 137 133
2.80551 1.16997 9.95324 0.843326 -0.520365 -0.134242 110 131 142
2.80551 1.16997 9.95324 0.843326 -0.520365 -0.134242 110 131 142
2.80551 1.16997 9.95324 0.843326 -0.520365 -0.134242 110 131 142
2.80715 1.09239 9.98125 0.0708939 -0.597068 0.799051 103 123 133
2.72072 1.03203 10.0842 0.105373 -0.578022 0.809189 55 54 53
2.65281 1.03574 10.1459 0.391779 -0.640179 0.660817 157 158 160
2.65136 1.01699 10.1287 0.299738 -0.68151 0.667609 157 157 160
2.39923 1.00977 10.3105 -0.275705 -0.790658 0.546669 159 161 157
2.35175 1.03794 10.3152 0.59561 -0.570105 0.565888 127 144 153
2.33699 1.03372 10.312 0.454828 -0.661891 0.595846 126 146 158
2.2804 0.98555 10.3801 0.765254 -0.138182 0.628722 127 152 165
2.27244 0.931729 10.4195 0.795967 -0.547684 0.257836 128 153 166
2.25436 0.929734 10.4384 0.496087 -0.612586 0.615334 128 155 168
2.23443 0.924713 10.4607 0.478546 -0.58464 0.655126 127 154 168
2.20422 0.942999 10.4711 0.112873 -0.754028 0.647071 123 150 163
1.61903 0.70797 10.9749 0.731502 -0.662013 0.163231 136 162 177
1.62254 0.709008 10.9739 0.470608 -0.80981 0.350337 136 162 178
1.56696 0.685692 11.0142 0.522579 -0.0657394 0.850053 162 171 176
1.54869 0.682942 11.0329 0.547589 -0.775754 0.313612 145 151 155
1.44868 0.643551 11.119 0.732763 -0.587481 0.3434 129 133 135
1.46633 0.662045 11.1197 0.771255 -0.537748 0.340577 103 106 109
1.33676 0.590039 11.2235 0.351065 -0.139475 0.925905 107 124 131
1.33594 0.590373 11.2239 0.344554 -0.131002 0.929581 106 123 131
1.31849 0.626344 11.2324 0.324632 -0.165316 0.931281 87 100 105
1.28555 0.623322 11.2448 0.626274 -0.414389 0.66035 108 116 116
1.28524 0.624867 11.2444 0.551814 -0.360474 0.752037 109 116 117
0.83922 0.1673 11.8542 -0.201066 -0.947723 -0.247777 210 211 215
0.855527 0.117415 11.8897 0.055528 -0.941554 0.332253 209 210 213
0.63841 0.152391 11.971 0.409136 -0.807682 0.424567 42 46 50
0.636085 0.153256 11.9714 0.492871 -0.839284 0.229522 43 49 53
0.620255 0.150467 11.985 0.348345 -0.813511 0.465677 101 120 131
0.540618 0.212622 11.9963 -0.201705 -0.764856 0.61181 123 132 135
0.15836 0.44773 12.0148 0.55849 -0.777715 0.288528 78 97 111
0.0614777 0.491505 12.0354 0.474741 -0.494696 0.72794 85 98 104
0.244563 0.105339 12.2305 0.859968 -0.198142 0.470314 119 136 146
0.239259 0.0943692 12.2552 0.882204 0.1045 0.459126 115 138 151
0.213198 0.0968411 12.268 0.438317 -0.445089 0.78088 116 138 152
0.189201 0.0878959 12.2988 0.174859 -0.852073 0.493352 111 133 146
0.189938 0.0680627 12.3187 -0.180455 -0.858073 0.480777 107 127 140
0.0866229 0.102452 12.3377 0.119505 -0.460267 0.8797 155 156 155
-1.05469 0.503849 12.6897 -0.0176958 -0.703424 0.71055 134 135 135
-1.02895 0.495737 12.6766 0.025774 -0.657739 0.752805 152 151 149
-1.10974 0.428796 12.7572 0.260937 -0.760138 0.595065 96 121 133
-1.14008 0.436172 12.7744 0.0269832 -0.793987 0.607336 78 93 103
-1.17606 0.447842 12.791 0.0232967 -0.77431 0.632378 34 34 37
-1.22836 0.474875 12.8024 0.633216 -0.649022 0.421672 44 43 44
-1.1798 0.449106 12.792 0.00580373 -0.756456 0.654019 34 34 37
4.74382 1.71483 8.43861 0.833415 -0.287315 0.472092 150 149 147
4.71907 1.64848 8.50414 0.27213 -0.163388 0.948288 158 158 157
4.66305 1.56481 8.57917 -0.067377 -0.19303 0.978877 149 149 147
4.62183 1.55839 8.61494 -0.174387 -0.564052 0.807115 52 50 48
4.47887 1.57994 8.691 -0.268313 -0.141094 0.952943 81 101 110
4.43684 1.60863 8.68435 0.76096 -0.146045 0.632148 74 89 94
4.40939 1.59722 8.70656 0.66567 -0.731995 0.145145 89 95 95
3.81015 1.50981 9.10998 0.160014 -0.668628 0.726176 156 155 152
3.77917 1.52169 9.12531 0.783323 -0.36116 0.505934 137 137 135
3.78646 1.19174 9.38856 0.366381 -0.530464 0.764442 151 151 149
3.74623 1.19746 9.40476 -0.0119378 -0.394955 0.918623 130 126 120
3.53979 1.28654 9.47356 -0.10967 -0.355922 0.928058 156 156 153
3.35677 1.31545 9.55373 -0.105254 -0.271141 0.956768 145 147 144
3.32283 1.30502 9.55461 -0.0727279 -0.171577 0.982483 148 147 144
3.2559 1.07589 9.78346 0.510836 -0.382814 0.76974 140 163 176
3.22905 1.07102 9.80064 0.411408 -0.463386 0.784867 118 139 152
3.21872 1.05925 9.80291 0.365188 -0.376158 0.851553 115 137 149
3.19911 1.06897 9.81479 0.432808 -0.578961 0.691 102 119 125
3.1767 1.07533 9.82556 0.484131 -0.46504 0.741185 128 134 134
3.15068 1.08282 9.8388 0.587637 -0.329528 0.738981 160 159 155
3.12218 1.06487 9.86783 0.722024 -0.349844 0.5969 162 161 157
2.95102 1.25124 9.84101 0.801086 -0.596933 -0.0439527 144 142 139
2.93163 1.22685 9.8417 0.744687 -0.65612 0.12226 142 141 137
2.91624 1.19553 9.87415 0.641814 -0.687793 -0.339137 158 158 154
2.81065 1.16926 9.98581 0.352547 -0.409945 0.841223 113 132 143
2.71199 1.05987 10.1271 0.0185386 -0.683307 0.729896 50 50 48
2.61778 1.07557 10.1598 -0.140973 -0.615425 0.775486 155 157 159
2.633 1.04561 10.1566 -0.15855 -0.819559 0.550623 156 158 160
2.59441 1.08727 10.1666 -0.476899 -0.744773 0.466776 152 155 157
2.27149 0.95226 10.4371 0.69852 -0.628998 0.34122 128 154 167
2.24982 0.947557 10.4623 0.637752 -0.616835 0.461289 128 154 168
2.22502 0.957106 10.4777 0.451411 -0.591275 0.668298 126 153 167
2.20445 0.959615 10.4913 0.162073 -0.686106 0.709219 125 152 166
2.09526 1.03475 10.4968 0.569497 -0.724729 0.387868 136 149 155
2.06877 1.04735 10.5064 -0.181846 -0.632784 0.752673 157 157 154
1.67148 0.773255 10.9403 0.570249 -0.0960597 0.815836 150 178 192
1.64286 0.726607 10.9763 0.769562 -0.610373 0.187666 135 162 178
1.61736 0.728298 10.9934 0.657874 -0.569269 0.493087 149 165 174
1.5814 0.727764 11.0327 0.567969 -0.0928433 0.817797 154 162 165
1.56802 0.704731 11.0321 0.596395 -0.104089 0.795914 158 165 168
1.53512 0.693152 11.0764 0.698791 -0.559662 0.4455 144 147 150
1.5368 0.694018 11.075 0.68036 -0.614215 0.399811 146 149 152
1.51024 0.691134 11.0793 0.118522 -0.879995 0.459957 126 130 134
1.48678 0.696804 11.0921 0.254274 -0.783995 0.566301 142 146 149
1.46909 0.699834 11.1102 0.667215 -0.707555 0.232789 89 92 95
1.46045 0.689878 11.1354 0.885803 -0.459215 -0.0668948 89 91 94
1.38948 0.631683 11.2036 0.58237 -0.469465 0.663662 136 146 152
1.35599 0.624653 11.2203 0.337295 -0.141902 0.930643 103 121 129
1.29424 0.662292 11.2396 0.502701 -0.489193 0.712729 127 130 128
1.29295 0.660355 11.2394 0.489702 -0.485629 0.724125 125 128 126
1.27314 0.654715 11.2591 0.602637 -0.669746 0.4339 158 158 154
0.857572 0.154394 11.8704 0.891035 -0.421582 -0.168304 210 211 215
0.659689 0.167528 11.9762 0.502926 -0.831487 0.235997 39 40 45
0.638498 0.162106 11.9919 0.38122 -0.829274 0.408627 101 123 133
0.616398 0.172699 12.0122 -0.273701 -0.883708 0.379668 107 128 138
0.53761 0.227459 12.0246 -0.277969 -0.900436 0.334588 160 160 157
0.523458 0.241631 12.0238 -0.214586 -0.787309 0.578012 160 159 156
0.124487 0.485061 12.0376 -0.185056 -0.974714 -0.12525 75 96 110
0.0733533 0.535744 12.0572 0.62927 -0.320441 0.708051 75 94 107
0.0278319 0.528333 12.0629 0.519023 -0.487947 0.7018 123 129 131
0.0551062 0.510273 12.0565 0.65132 -0.310669 0.692292 87 98 105
0.236287 0.125351 12.2536 0.82825 -0.291423 0.478617 118 134 142
0.209542 0.108612 12.2949 0.879168 -0.319769 0.353287 115 138 152
0.19765 0.097132 12.3177 0.848765 -0.36138 0.386009 113 135 148
0.162196 0.0819297 12.3289 0.146842 -0.638597 0.755401 94 111 119
0.183025 0.088902 12.3395 -0.216547 -0.879261 0.424273 106 126 137
0.111109 0.117796 12.3424 0.154644 -0.546707 0.82292 111 123 128
0.0788706 0.142047 12.3505 -0.0839871 -0.695644 0.713461 134 139 141
-1.10988 0.45493 12.7903 0.280728 -0.758897 0.587595 95 121 133
-1.13849 0.461104 12.8076 0.00372714 -0.78315 0.621821 84 103 113
-1.17773 0.474522 12.8244 0.0273041 -0.764149 0.644461 34 34 38
-1.17511 0.474165 12.8243 0.00161764 -0.775032 0.63192 35 34 39
4.73225 1.69491 8.47047 0.812749 -0.57488 0.0946162 151 150 148
4.58018 1.58353 8.66756 -0.520105 -0.853415 0.0342619 43 42 44
4.54786 1.61436 8.66894 0.101355 -0.324663 0.940383 109 125 134
4.40818 1.64783 8.7167 0.470863 0.034803 0.88152 122 123 119
3.81776 1.50361 9.14571 -0.594503 -0.675471 0.43624 153 152 149
3.77435 1.20688 9.40483 0.290847 -0.525296 0.79967 122 121 118
3.7626 1.22249 9.41643 0.0950377 -0.495543 0.863368 117 114 108
3.73523 1.21119 9.42187 0.360306 -0.582822 0.728353 156 155 151
3.71087 1.2391 9.42146 0.652356 -0.274903 0.7063 161 162 159
3.5231 1.34572 9.46039 -0.425384 -0.393559 0.81496 143 143 141
3.3131 1.11539 9.77122 0.604429 -0.425919 0.673245 156 178 189
3.29299 1.09541 9.76512 0.467827 -0.540248 0.699479 149 165 172
3.27061 1.09508 9.78561 0.451354 -0.539823 0.710543 136 161 174
3.24809 1.09608 9.80373 0.373738 -0.602163 0.705492 117 137 149
3.22097 1.09347 9.81728 0.346939 -0.498317 0.794552 103 117 123
3.1938 1.09235 9.83108 0.390485 -0.43498 0.811365 141 144 142
3.20057 1.09581 9.82737 0.346106 -0.400152 0.848581 131 136 136
3.17072 1.09587 9.84402 0.435605 -0.454814 0.776783 161 159 155
3.16124 1.08928 9.85469 0.6132 -0.474339 0.631655 158 158 154
3.09088 1.07834 9.9055 0.311251 -0.00467879 0.950316 159 161 159
2.97334 1.27683 9.84219 0.724911 -0.632146 0.273671 144 144 139
2.9415 1.22635 9.87446 0.761969 -0.602414 -0.237699 166 166 162
2.92913 1.21327 9.89702 0.917581 -0.396029 0.0347324 164 164 161
2.78449 1.13482 10.0355 0.129428 -0.5411 0.830938 102 120 131
2.24815 0.969753 10.482 0.684086 -0.522633 0.508804 128 152 166
2.22631 0.974316 10.4968 0.306787 -0.619176 0.722844 124 149 163
2.2041 0.979703 10.5097 0.151983 -0.701583 0.696191 125 153 168
2.17645 0.996147 10.5171 -0.448006 -0.721949 0.527333 119 147 162
2.1223 1.03791 10.5083 -0.471887 -0.791017 0.389376 117 144 158
2.09395 1.05431 10.516 0.21465 -0.752618 0.622488 134 149 155
2.07034 1.06157 10.5291 0.00864118 -0.64127 0.767267 157 158 155
1.55413 0.758196 11.0647 0.857973 -0.233869 0.457371 109 112 116
1.54404 0.751552 11.0696 0.425858 -0.341365 0.837923 135 138 141
1.52722 0.732944 11.0964 0.806198 -0.173569 0.565613 128 131 135
1.50865 0.714514 11.0945 0.452381 -0.664761 0.594511 130 134 137
1.48758 0.717478 11.1101 0.4634 -0.661028 0.590172 118 122 126
1.43639 0.66973 11.1846 0.737974 -0.578128 0.348086 149 155 157
1.42359 0.675377 11.2034 0.382368 -0.240708 0.892107 130 143 149
1.40447 0.657205 11.2019 0.610135 -0.474442 0.63454 134 145 151
1.37613 0.657187 11.2186 0.303492 -0.120382 0.945199 100 118 125
1.33385 0.683475 11.2232 0.552655 -0.291199 0.780882 89 101 105
1.33707 0.682686 11.222 0.565735 -0.31687 0.761273 89 101 106
1.31346 0.683274 11.2393 0.596883 -0.426901 0.679328 128 131 130
1.31055 0.68323 11.2408 0.606668 -0.419346 0.675354 136 138 136
0.770729 0.123139 11.989 0.280887 -0.925408 0.254406 34 33 35
0.683254 0.190609 11.9996 0.534177 -0.825808 0.180822 66 77 85
0.62201 0.198215 12.0208 -0.26784 -0.867265 0.419659 108 125 132
0.591017 0.217754 12.0301 0.413686 -0.876818 0.245061 151 153 152
0.57041 0.216282 12.0422 0.205282 -0.977734 -0.0435323 160 159 156
0.56175 0.227402 12.0403 -0.237482 -0.936338 0.2586 159 158 155
0.474069 0.295245 12.0466 0.38251 -0.531551 0.755738 162 162 159
0.160694 0.497959 12.0441 0.289674 -0.916301 0.276555 80 102 114
0.129744 0.500401 12.0575 0.59262 -0.790885 0.152653 78 100 113
0.103826 0.532987 12.0738 0.411187 -0.911436 0.0144562 77 99 112
0.0449452 0.534199 12.1103 0.1713 -0.922423 0.346111 120 126 128
0.233252 0.14721 12.2722 0.487649 -0.641231 0.59247 129 140 146
0.213639 0.141814 12.293 0.695194 -0.42665 0.578511 115 136 148
0.209642 0.121133 12.3181 0.924963 -0.327698 0.192504 115 137 151
0.196596 0.111036 12.3404 0.864775 -0.195301 0.462625 113 134 147
0.147598 0.111716 12.3479 0.18032 -0.477787 0.85977 96 114 123
0.106923 0.143519 12.364 -0.0991089 -0.713041 0.694082 102 117 125
0.0812053 0.154952 12.3736 -0.0680872 -0.684473 0.725852 132 137 139
0.0514151 0.170282 12.3825 -0.0265212 -0.681705 0.731147 155 154 152
0.0431715 0.164593 12.3952 0.186148 -0.627516 0.756024 162 162 160
4.74609 1.70901 8.50951 0.769266 -0.638331 0.0276445 189 189 190
4.49698 1.62953 8.70636 0.246381 0.0376287 0.968442 75 94 102
4.41791 1.69565 8.71049 0.5679 -0.205098 0.797135 149 148 144
4.39916 1.64661 8.75383 0.689222 -0.0800034 0.720119 148 148 146
3.80341 1.23316 9.41913 0.0191511 -0.522605 0.85236 143 143 142
3.77808 1.24584 9.42674 -0.0206365 -0.569169 0.821962 109 108 102
3.75519 1.25071 9.44025 0.377574 -0.620437 0.687384 157 156 152
3.73554 1.22934 9.44106 0.460088 -0.617221 0.638246 161 161 158
3.54212 1.34133 9.47148 -0.111575 -0.166162 0.979766 150 149 146
3.5208 1.38533 9.46764 -0.260651 -0.659611 0.704965 142 143 141
3.33611 1.13955 9.76695 0.502132 -0.498518 0.706642 151 172 181
3.3383 1.14383 9.7693 0.45377 -0.560628 0.692668 153 175 185
3.31366 1.13859 9.78634 0.395861 -0.6129 0.683848 127 149 162
3.29291 1.11834 9.7867 0.433131 -0.651103 0.623268 129 151 166
3.27037 1.11984 9.80596 0.430803 -0.532568 0.728547 115 136 146
3.24521 1.12013 9.81934 0.414708 -0.486375 0.769062 103 116 120
3.24 1.11848 9.82042 0.313871 -0.375384 0.872108 104 115 119
3.21223 1.11606 9.83442 0.420068 -0.488959 0.764501 149 150 147
3.21865 1.11887 9.8327 0.373563 -0.484595 0.79096 143 145 143
3.1894 1.11989 9.84575 0.414371 -0.42172 0.806504 161 159 155
3.18657 1.12142 9.84333 0.350925 -0.370763 0.859876 161 159 155
3.15934 1.11785 9.86828 0.719467 -0.351354 0.599098 158 158 155
3.11467 1.12165 9.89781 0.316214 -0.00634646 0.948667 151 155 155
2.96635 1.25747 9.87461 0.766058 -0.601269 -0.227223 164 163 159
2.85336 1.24972 9.96849 -0.142438 -0.56145 0.81516 159 158 154
2.80228 1.21408 10.025 0.783726 -0.574797 -0.235333 114 131 140
2.7981 1.17762 10.0255 0.628757 -0.645962 0.432895 114 137 149
2.78249 1.1511 10.0565 0.0100782 -0.676359 0.736504 108 128 140
2.7007 1.10151 10.1719 -0.0195302 -0.727436 0.685897 38 38 37
2.24567 0.995466 10.4971 0.681473 -0.491873 0.5419 126 150 163
2.22583 0.995892 10.5139 0.390976 -0.574069 0.719433 124 146 159
2.22504 0.995717 10.5147 0.44202 -0.59936 0.667373 124 146 159
2.20306 1.00069 10.5277 0.324356 -0.629123 0.706397 124 150 164
2.14275 1.03267 10.515 -0.459367 -0.742814 0.487041 115 143 158
2.17736 1.01302 10.5388 -0.456888 -0.733367 0.503415 118 145 160
2.14201 1.03395 10.515 -0.452379 -0.75445 0.475561 115 143 158
2.0913 1.07946 10.5402 -0.24921 -0.776661 0.578526 134 150 157
1.57031 0.769152 11.0513 0.635834 -0.343019 0.691414 119 122 125
1.54082 0.766294 11.0903 0.895004 -0.227577 0.383636 132 134 138
1.49894 0.723984 11.1385 0.670468 -0.680625 0.295333 99 103 105
1.45546 0.70212 11.1833 0.881049 -0.462679 0.0983938 147 153 156
1.42957 0.688176 11.2028 0.365743 -0.198995 0.909194 126 139 146
1.38911 0.69081 11.2153 0.327825 -0.103878 0.93901 96 113 120
1.37218 0.726193 11.2284 0.214218 -0.643815 0.734583 88 96 98
1.34996 0.710418 11.2239 0.584189 -0.336366 0.738635 89 100 102
1.32952 0.707642 11.2388 0.636578 -0.38102 0.670516 136 138 137
0.711617 0.203452 11.997 0.447665 -0.793373 0.412499 38 39 43
0.585022 0.234884 12.0483 0.429079 -0.818366 0.38232 160 160 158
0.509911 0.277247 12.0431 -0.0844852 -0.617984 0.781638 165 165 163
0.190909 0.506304 12.052 0.123503 -0.582379 0.803481 92 110 119
0.156796 0.531327 12.0568 0.127312 -0.743918 0.656032 83 105 118
0.119647 0.546066 12.0877 0.43478 -0.890839 -0.131805 81 106 119
0.124291 0.545583 12.0899 0.442699 -0.890553 -0.104563 82 107 120
0.100144 0.547876 12.1046 -0.269375 -0.917154 0.293708 84 107 119
0.0662851 0.547987 12.0934 0.12817 -0.806553 0.5771 75 94 107
0.230502 0.164803 12.2936 0.176773 -0.705924 0.685873 140 147 151
0.217357 0.127845 12.3428 0.710784 -0.687317 0.149603 115 137 150
0.172415 0.13841 12.3605 0.451177 -0.478281 0.75345 110 132 145
0.130594 0.142125 12.3668 0.211518 -0.474957 0.85421 98 116 127
0.106344 0.167154 12.385 -0.0716584 -0.678474 0.731122 95 114 122
0.076307 0.182394 12.3932 -0.0722968 -0.681684 0.728066 123 130 134
0.0585797 0.185707 12.4044 0.0860569 -0.584703 0.80667 153 154 154
4.78747 1.77155 8.47484 -0.114815 -0.989243 0.0906427 196 196 196
4.77156 1.74872 8.50554 0.330139 -0.768361 0.548297 199 200 202
4.47017 1.68313 8.70466 0.270312 0.0419241 0.96186 82 95 100
4.433 1.72759 8.71342 0.509196 -0.289519 0.810492 152 152 148
3.8327 1.25763 9.42729 0.448152 -0.609755 0.653727 156 156 155
3.80219 1.25986 9.43421 0.261627 -0.521479 0.812165 125 124 120
3.77868 1.26832 9.44398 0.13922 -0.481371 0.86539 131 128 123
3.73305 1.25745 9.45474 0.425699 -0.278817 0.860837 159 159 156
3.54543 1.38755 9.48488 -0.475988 -0.520154 0.709137 157 157 154
3.52495 1.42214 9.47529 0.597606 -0.535167 0.597045 146 146 145
3.50682 1.41942 9.49338 0.693609 -0.340367 0.634867 130 130 127
3.33692 1.16269 9.78234 0.350774 -0.520704 0.778347 132 157 170
3.33761 1.16114 9.78275 0.347671 -0.518874 0.780958 133 157 171
3.33901 1.16668 9.7847 0.231795 -0.46111 0.856533 130 154 167
3.31351 1.13875 9.79114 0.282399 -0.633398 0.720456 124 146 158
3.31486 1.1625 9.80106 0.382198 -0.581411 0.718252 117 139 151
3.2901 1.1418 9.80664 0.511198 -0.432771 0.742554 112 132 144
3.29255 1.13925 9.80418 0.4365 -0.624966 0.647214 117 137 150
3.25791 1.1401 9.82218 0.486394 -0.408612 0.772306 112 120 122
3.26428 1.14482 9.82091 0.496249 -0.34585 0.796319 109 118 122
3.27513 1.15939 9.8264 0.640221 -0.362488 0.677289 123 128 129
3.2479 1.15698 9.84401 0.555238 -0.421575 0.716928 156 156 153
3.23096 1.13918 9.83702 0.426391 -0.410763 0.805893 154 153 150
3.2072 1.14099 9.85053 0.358468 -0.475335 0.803466 155 154 151
3.2049 1.14576 9.84779 0.307715 -0.424117 0.851725 155 154 151
3.22248 1.15031 9.86542 0.619458 -0.469145 0.629424 158 157 154
3.21822 1.14817 9.8697 0.643616 -0.478639 0.597213 158 158 154
3.12978 1.14454 9.90103 0.00452498 -0.15064 0.988578 150 155 157
3.01034 1.30963 9.86477 0.682286 -0.72398 0.101678 157 157 153
2.97634 1.29498 9.86533 0.305111 -0.801514 0.514278 159 159 156
2.96104 1.2848 9.88517 0.765305 -0.545522 0.341634 158 157 153
2.89491 1.2935 9.94667 0.0130675 -0.162726 0.986585 157 156 152
2.84231 1.28616 9.97475 0.559134 -0.0766286 0.825529 156 156 153
2.87063 1.26465 9.97246 0.529217 -0.117455 0.840318 157 155 152
2.79223 1.21524 10.0356 0.774141 -0.582484 -0.247825 116 137 147
2.78016 1.17673 10.0725 -0.00392294 -0.692227 0.721669 114 136 150
2.78022 1.17559 10.0733 -0.0134999 -0.702523 0.711533 114 136 149
2.60866 1.13419 10.225 0.126725 -0.744119 0.655917 156 158 160
2.26647 1.0278 10.4898 0.814708 -0.45987 0.353229 127 152 166
2.25401 1.01155 10.5146 0.207464 -0.516873 0.830543 127 151 164
2.226 1.01396 10.532 0.437781 -0.642692 0.628725 123 146 159
2.20416 1.01858 10.5467 0.386024 -0.663296 0.641111 124 149 163
2.1753 1.01792 10.5426 -0.419109 -0.730985 0.538524 118 144 159
2.06046 1.10148 10.5472 -0.067462 -0.681215 0.728968 156 156 154
1.50864 0.762957 11.1312 0.391692 -0.400692 0.828265 117 120 123
1.45106 0.716488 11.2031 0.392499 -0.247527 0.885819 121 135 142
1.36052 0.74977 11.243 0.367721 -0.445097 0.816499 151 150 147
1.3081 0.714716 11.2837 0.856421 -0.36683 0.36329 163 163 160
0.627433 0.238931 12.0433 0.831455 -0.211022 0.513958 146 148 149
0.614819 0.221098 12.0685 0.667024 -0.744411 0.0305023 160 160 158
0.451729 0.325844 12.0927 0.105031 -0.718743 0.687297 160 160 157
0.4281 0.337338 12.1017 -0.00867729 -0.776448 0.630122 122 122 120
0.404097 0.346496 12.1116 -0.0564681 -0.706631 0.705326 136 137 136
0.152991 0.548815 12.08 -0.0442559 -0.917831 0.394496 84 107 120
0.122197 0.558246 12.1127 0.138747 -0.911264 0.387746 84 107 121
0.0914514 0.572562 12.1227 0.232034 -0.814953 0.531047 85 109 121
0.0693208 0.562228 12.1146 0.351377 -0.360101 0.864211 76 96 109
0.0633984 0.581874 12.1296 0.854304 -0.26847 0.445072 77 98 111
0.0459226 0.56884 12.1534 0.996356 -0.0852868 5.50896e-005 101 111 117
0.0377675 0.53693 12.1517 0.997014 -0.0650665 0.0415916 157 157 156
0.0651089 0.484154 12.1947 0.966234 0.040785 0.254416 159 158 156
0.240116 0.138838 12.3447 0.701935 -0.230427 0.673937 112 131 142
0.183344 0.159363 12.3656 0.51798 -0.184887 0.835173 114 136 150
0.203221 0.154226 12.3653 0.512537 -0.0554298 0.856874 115 136 150
0.165773 0.157285 12.3794 0.268384 -0.854166 0.445388 112 132 146
0.136249 0.169412 12.3893 -0.156461 -0.830683 0.534309 105 126 137
0.109425 0.189738 12.401 0.0261664 -0.650898 0.758714 98 119 130
0.109375 0.190033 12.4011 0.0144327 -0.652026 0.75806 98 119 130
0.084036 0.200145 12.4114 0.020039 -0.645318 0.763651 96 111 118
0.0857778 0.199103 12.4113 -0.0374096 -0.670167 0.741267 96 112 119
0.0316051 0.197377 12.4151 0.0241685 -0.570293 0.821085 162 162 159
4.6567 1.62218 8.68143 0.849763 -0.325856 0.414393 41 40 41
4.44938 1.76328 8.71094 0.00664775 -0.0351137 0.999361 154 153 150
3.83481 1.27624 9.44571 -0.0253638 -0.588138 0.808363 154 154 151
3.80844 1.267 9.43996 0.261969 -0.539851 0.799958 130 129 126
3.80226 1.28379 9.44977 0.183305 -0.56667 0.803296 106 103 98
3.79635 1.2882 9.45512 0.35153 -0.625201 0.696814 119 117 111
3.76804 1.28618 9.46084 0.170317 -0.640604 0.748745 156 155 152
3.35794 1.17171 9.78873 0.102582 -0.221434 0.969765 132 156 171
3.35976 1.17448 9.78585 0.249337 -0.33038 0.910318 134 159 173
3.33873 1.17537 9.78386 -0.100924 -0.202711 0.974024 128 151 164
3.3094 1.16549 9.8057 0.516368 -0.488459 0.7034 111 131 142
3.31621 1.16962 9.80046 0.422318 -0.475221 0.771889 115 137 149
3.30676 1.16791 9.80751 0.543583 -0.496828 0.67652 106 126 135
3.30679 1.19657 9.81553 0.504787 -0.120064 0.854854 113 121 123
3.28196 1.16798 9.82229 0.609697 -0.285814 0.739311 121 127 127
3.25605 1.17064 9.83685 0.505622 -0.337524 0.793993 154 153 152
3.264 1.17288 9.84983 0.702477 -0.340184 0.625141 156 154 152
3.04669 1.33931 9.84071 0.714796 -0.688168 0.124466 137 138 135
3.03178 1.32896 9.86557 0.686124 -0.718064 0.116696 160 160 156
2.98286 1.3412 9.86363 0.235503 -0.344767 0.908666 162 161 158
2.9294 1.361 9.90821 0.239174 -0.871201 0.428724 158 156 154
2.84961 1.31977 9.97956 0.51651 0.0251975 0.85591 142 143 139
2.77612 1.19236 10.0991 -0.0255017 -0.719028 0.694513 116 138 151
2.77814 1.19343 10.0959 -0.0251323 -0.71805 0.695537 118 140 153
2.77873 1.19375 10.0955 0.0819498 -0.595479 0.79918 118 141 154
2.71346 1.13786 10.1999 -0.0497994 -0.747988 0.661842 40 40 42
2.69103 1.14379 10.2148 -0.0308108 -0.744322 0.667109 41 39 38
2.58917 1.14731 10.2418 -0.410665 -0.691764 0.593984 152 154 155
2.27087 1.0362 10.5116 0.590152 -0.510046 0.625758 127 152 165
2.2251 1.03404 10.55 0.554784 -0.578076 0.598367 126 149 162
2.22534 1.03303 10.5496 0.569644 -0.555502 0.605742 126 149 162
2.20457 1.03597 10.5659 0.498406 -0.627651 0.598035 126 152 166
2.17271 1.04225 10.566 -0.31624 -0.811599 0.491223 118 145 159
2.1457 1.06248 10.5717 0.107248 -0.531969 0.839944 114 142 156
2.09074 1.10245 10.5635 -0.184962 -0.741947 0.64444 130 146 156
2.0598 1.12156 10.5687 -0.0197036 -0.784473 0.61985 160 161 160
1.5611 0.777056 11.1209 0.801962 -0.533948 0.267875 109 112 114
1.49998 0.75567 11.1836 0.360487 -0.505838 0.783695 144 151 155
1.47065 0.746004 11.2031 0.392851 -0.237261 0.888468 115 130 138
1.43637 0.750055 11.2156 0.347618 -0.208113 0.914249 95 112 120
0.922574 0.167417 11.974 0.0581385 -0.937114 0.344147 196 199 203
0.750181 0.226503 12.0119 0.306995 -0.750134 0.585707 38 37 40
0.73006 0.226702 12.0253 0.320761 -0.729775 0.603772 76 90 99
0.699213 0.233312 12.0396 -0.167964 -0.720173 0.673156 107 130 142
0.672779 0.247785 12.0473 -0.168509 -0.718667 0.674628 114 127 133
0.621075 0.261331 12.0613 0.74432 -0.151481 0.650416 162 161 158
0.458087 0.358108 12.0942 0.510294 -0.0493093 0.858585 161 161 159
0.451593 0.343892 12.113 0.0320798 -0.777589 0.627954 157 156 154
0.428202 0.35331 12.123 0.0111008 -0.755699 0.654825 128 127 125
0.152391 0.562827 12.1106 -0.222966 -0.904712 0.363019 87 109 123
0.112169 0.585628 12.1294 0.247117 -0.787214 0.565003 85 110 122
0.0847132 0.59874 12.1391 0.462267 -0.853676 0.239888 88 111 124
0.0620571 0.597484 12.1521 0.583618 -0.419681 0.695167 77 100 114
0.0379178 0.595521 12.1716 0.955069 0.0708983 0.287779 93 106 113
0.0649447 0.524433 12.1936 0.985191 -0.0729482 0.15517 154 155 155
0.0514449 0.515268 12.2227 0.979759 0.0535843 0.192876 164 163 163
0.209704 0.199613 12.3458 0.612562 -0.486085 0.623289 123 135 141
0.19148 0.196872 12.3643 0.610426 -0.496132 0.617441 115 135 147
0.193393 0.15832 12.3899 0.526354 -0.0416515 0.849245 115 136 149
0.139465 0.180925 12.4173 -0.218754 -0.943288 0.249708 106 126 139
0.0984653 0.207819 12.4264 0.159059 -0.966175 0.202994 99 117 127
0.0657278 0.203476 12.4234 0.0930948 -0.706697 0.701365 135 138 141
0.0385986 0.214665 12.4344 0.080482 -0.644344 0.760489 162 161 160
3.84104 1.29943 9.45887 -0.0265221 -0.623522 0.781356 147 147 144
3.7699 1.30243 9.48061 0.197715 -0.565018 0.801039 154 153 151
3.39217 1.19437 9.77003 0.716115 -0.405607 0.568034 154 178 188
3.36417 1.20519 9.78432 -0.0695026 -0.194615 0.978414 125 150 164
3.33093 1.20538 9.79955 0.595244 -0.206703 0.776504 108 126 135
3.00497 1.35057 9.87826 0.630988 -0.430519 0.645374 159 158 155
2.93279 1.40036 9.89814 0.549676 -0.835378 0.000369132 155 154 150
2.91993 1.38985 9.92553 0.469625 -0.758819 0.451272 146 145 143
2.90671 1.35311 9.93317 0.485535 -0.602701 0.633251 162 161 157
2.88408 1.35084 9.9546 0.450782 -0.585684 0.673625 146 146 143
2.86147 1.34854 9.97602 0.606051 -0.509939 0.610462 148 148 144
2.83986 1.34646 9.99719 0.170682 -0.810232 0.560707 159 160 157
2.79038 1.23945 10.0854 0.482731 -0.425148 0.76565 119 138 147
2.77658 1.21136 10.1178 -0.0375128 -0.699739 0.713413 120 142 155
2.63201 1.13851 10.272 0.528943 -0.545677 0.649966 157 158 160
2.59244 1.17548 10.2717 -0.369546 -0.731101 0.573522 152 153 155
2.2704 1.05724 10.5291 0.651274 -0.537843 0.53532 130 156 169
2.24614 1.0496 10.5515 0.293238 -0.438035 0.849786 127 151 164
2.22502 1.05379 10.5686 0.603437 -0.539486 0.587213 127 150 163
2.22461 1.05266 10.5679 0.598005 -0.54757 0.585284 127 150 163
2.20242 1.05852 10.5829 0.144403 -0.647572 0.748196 126 152 165
2.17155 1.05984 10.59 -0.327963 -0.786276 0.523651 117 143 157
2.13611 1.09757 10.5873 -0.34616 -0.574037 0.742061 115 139 152
2.0957 1.12375 10.5929 -0.323884 -0.58691 0.742049 123 144 158
2.06149 1.14944 10.5951 -0.328328 -0.560387 0.760373 154 158 160
1.5956 0.827213 11.1131 0.116358 -0.645882 0.754518 151 158 162
1.53974 0.77423 11.1915 0.684148 -0.0648588 0.726454 142 150 153
1.50164 0.77707 11.2003 0.26379 -0.158076 0.951539 115 130 136
1.45654 0.78027 11.2156 0.791972 -0.250856 0.556643 91 109 115
1.45645 0.778074 11.2165 0.731191 -0.20354 0.651099 91 108 115
0.750232 0.240869 12.0304 0.453759 -0.779467 0.431896 58 68 75
0.629809 0.292157 12.0621 0.78291 0.0145852 0.621964 159 158 156
0.6509 0.303376 12.0666 -0.131239 -0.677741 0.723494 128 129 126
0.111412 0.601793 12.1497 0.215718 -0.87211 0.439192 86 113 125
0.0841815 0.60601 12.1624 -0.223286 -0.939466 0.259897 88 113 126
0.0828057 0.612405 12.1604 -0.1629 -0.944122 0.286527 89 114 127
0.205822 0.220294 12.3639 0.56847 -0.429325 0.701799 130 139 143
0.202195 0.240199 12.3814 0.563615 -0.498519 0.658648 138 142 145
0.188926 0.214393 12.382 0.8477 -0.206533 0.48862 116 134 146
0.189301 0.215663 12.3822 0.861601 -0.201492 0.465881 116 134 146
0.18301 0.169677 12.4268 0.51399 -0.841456 0.166631 113 134 148
0.126694 0.20418 12.4437 -0.242431 -0.937609 0.249231 105 126 137
0.065712 0.223133 12.4432 0.0799024 -0.852525 0.516543 121 128 132
0.0846356 0.234987 12.4529 0.154043 -0.788844 0.594975 101 119 129
0.0427232 0.228765 12.4552 0.103283 -0.760744 0.640782 155 155 154
0.0423593 0.233475 12.4539 0.00957096 -0.739737 0.672828 154 154 154
-0.0151207 0.270177 12.4552 -0.128766 -0.765181 0.630807 160 160 157
-1.24518 0.569698 12.9666 0.571649 -0.738428 0.357689 158 159 157
4.83336 1.83883 8.49766 -0.412274 -0.234009 0.880494 147 147 145
4.74669 1.81242 8.56488 0.805197 -0.25101 0.537263 149 149 147
4.67897 1.75935 8.65941 0.835841 -0.411556 0.363306 43 44 45
3.84432 1.31307 9.48006 -0.39399 -0.33536 0.855748 132 131 128
3.81489 1.31366 9.46819 0.226154 -0.612287 0.757601 110 109 104
3.7924 1.31962 9.48326 0.361886 -0.579879 0.729917 145 145 142
3.40333 1.2418 9.79299 0.196983 -0.330317 0.923086 121 141 154
3.41882 1.23275 9.79073 0.0583762 -0.321343 0.945162 127 150 163
3.39419 1.21256 9.80339 0.0864561 -0.318928 0.943827 123 145 159
3.35488 1.21452 9.81119 0.678893 -0.714409 0.169482 104 120 128
3.00936 1.38913 9.8849 0.0152808 -0.792182 0.610093 160 159 156
2.95622 1.39238 9.92612 0.546459 -0.673937 0.497184 142 141 139
2.92981 1.37891 9.94078 0.343768 -0.921532 -0.180561 139 138 135
2.90584 1.36791 9.95643 0.350185 -0.936407 -0.0226408 143 143 140
2.88416 1.37233 9.97256 0.415606 -0.607368 0.677034 160 160 156
2.90542 1.38633 9.97651 -0.167308 -0.527 0.833234 162 161 157
2.86201 1.37426 9.99046 0.491328 -0.573638 0.65539 160 159 155
2.82195 1.35198 10.0431 -0.114572 -0.276606 0.954129 162 163 161
2.80483 1.34055 10.0688 0.346163 -0.336926 0.875587 153 155 155
2.80092 1.30155 10.0694 0.0041071 -0.244174 0.969723 153 156 156
2.77654 1.29236 10.1231 0.808519 -0.548397 -0.213444 118 136 145
2.77089 1.23304 10.1395 0.0419517 -0.646834 0.761476 121 144 157
2.77299 1.23138 10.1397 0.000792637 -0.674842 0.737962 122 145 158
2.70744 1.17198 10.246 -0.214258 -0.743605 0.63336 42 41 42
2.62961 1.15406 10.2959 0.464706 -0.485936 0.740212 157 158 160
2.25784 1.08761 10.5509 0.746878 -0.291607 0.597611 129 156 169
2.2228 1.07744 10.5863 0.577153 -0.487141 0.65543 127 151 164
2.20355 1.07688 10.6019 0.23225 -0.644466 0.728507 125 150 163
2.18186 1.08029 10.6167 0.0191975 -0.716896 0.696916 120 144 157
2.13327 1.12852 10.6156 -0.282665 -0.511599 0.811398 115 140 152
2.09889 1.14857 10.6206 -0.363963 -0.605604 0.707654 120 143 158
1.72278 0.900366 11.0101 0.530525 -0.0892961 0.842953 113 145 164
1.48485 0.809148 11.2109 0.354913 -0.151251 0.922583 90 106 113
1.47049 0.840225 11.2239 0.419694 -0.235998 0.876448 106 112 113
1.43909 0.83805 11.2404 0.451576 -0.284643 0.845611 157 157 154
1.442 0.807943 11.2357 0.443411 -0.343818 0.827754 127 129 129
0.864773 0.195143 12.0385 0.159083 -0.822257 0.54643 35 34 35
0.793021 0.262239 12.0381 0.295047 -0.763244 0.57481 38 39 42
0.77595 0.265733 12.0565 0.459379 -0.76696 0.448044 96 113 123
0.742868 0.262038 12.0588 0.0873369 -0.752297 0.653009 106 130 142
0.660185 0.331716 12.0615 -0.170799 -0.709956 0.683221 119 124 125
0.606835 0.334905 12.0796 0.761498 0.0576579 0.645598 161 161 159
0.285629 0.560373 12.12 0.578245 -0.243451 0.778694 163 162 160
0.263787 0.573987 12.1255 0.309752 -0.642928 0.700498 153 152 151
0.125701 0.620477 12.1563 0.325054 -0.631832 0.703653 89 113 126
0.109951 0.614951 12.1717 0.419688 -0.246679 0.873505 89 113 126
0.0737615 0.621925 12.1844 -0.264074 -0.921863 0.283607 81 107 120
0.0415868 0.639172 12.1969 0.248252 -0.713804 0.654869 78 100 112
0.0180467 0.606323 12.2221 0.923862 0.00154173 0.382722 159 158 157
0.182231 0.240095 12.3988 0.703341 -0.350041 0.618695 117 133 143
0.18427 0.206648 12.4204 0.792334 -0.595047 0.134633 115 136 150
0.146903 0.224555 12.4451 0.78654 -0.350609 0.508358 113 134 147
0.0865837 0.250047 12.4741 0.154542 -0.78821 0.595686 102 122 134
0.0617324 0.240529 12.4649 0.080898 -0.746886 0.660013 122 130 134
0.0335627 0.252445 12.4759 -0.119896 -0.755897 0.643619 144 144 144
-1.24758 0.577177 12.9774 0.636175 -0.708455 0.305569 157 156 155
4.59525 1.7569 8.74407 0.767037 -0.229532 0.59914 87 109 120
4.42197 1.48026 9.04319 0.551685 -0.476183 0.684758 152 152 150
3.87699 1.31368 9.49455 -0.371167 -0.386719 0.844206 149 148 147
3.82394 1.34051 9.48258 0.00998245 -0.525195 0.850923 115 113 108
3.79474 1.33575 9.50314 0.408069 -0.60153 0.686761 159 158 155
3.45504 1.27744 9.77344 -0.138508 -0.215186 0.966701 135 159 173
3.43888 1.26344 9.77413 -0.156448 -0.225377 0.961628 134 159 173
3.43252 1.24872 9.7828 -0.111203 -0.233294 0.966027 129 153 167
3.42862 1.25422 9.80572 0.463088 -0.642633 0.610387 116 134 145
3.4086 1.24842 9.80778 0.368109 -0.530497 0.763589 108 124 133
3.39782 1.25084 9.81422 0.412938 -0.667098 0.62005 102 116 122
3.38749 1.25129 9.825 0.354059 -0.58521 0.7295 121 128 129
2.99115 1.42182 9.91028 0.0867478 -0.639817 0.763615 140 140 138
3.01057 1.40902 9.90494 -0.0241233 -0.866895 0.497907 148 148 146
2.93044 1.39146 9.99226 -0.0568758 -0.938915 -0.339416 163 162 158
2.81737 1.38145 10.0625 0.0713414 -0.34112 0.937309 159 160 159
2.80893 1.35137 10.0928 0.00378233 -0.663308 0.748337 154 154 152
2.77126 1.25164 10.1594 -0.100872 -0.550734 0.828563 122 144 156
2.77053 1.25114 10.1607 -0.124217 -0.594981 0.794083 122 144 156
2.22287 1.09914 10.6031 0.523049 -0.513874 0.679965 127 150 162
2.19885 1.10729 10.6157 0.810607 -0.425213 0.402629 125 149 161
2.16706 1.10604 10.644 -0.181585 -0.823004 0.53823 116 139 152
2.05815 1.17702 10.6466 -0.243132 -0.941286 0.234239 158 159 157
2.03268 1.18723 10.6634 -0.385383 -0.91346 0.130656 134 134 132
1.76407 0.915927 10.9976 0.249452 -0.399323 0.882222 154 166 172
1.67226 0.892516 11.0804 0.276119 -0.53644 0.79749 110 138 156
1.64669 0.897751 11.0979 0.141821 -0.497249 0.855938 117 143 157
1.59065 0.858237 11.1569 0.0192547 -0.850552 0.525539 139 150 154
1.57607 0.845616 11.1805 0.686108 -0.450287 0.5714 140 149 152
1.54475 0.834958 11.1969 0.29309 -0.20242 0.934411 109 126 133
1.4898 0.871689 11.2226 0.336517 -0.173182 0.925616 115 120 120
1.45755 0.870614 11.2387 0.441551 -0.292423 0.848246 159 158 155
1.43711 0.854662 11.2596 0.837555 0.007126 0.546306 162 161 159
0.794994 0.276782 12.0517 0.398229 -0.772874 0.494044 46 52 58
0.73975 0.309486 12.0802 0.88093 -0.312656 0.355258 109 125 131
0.678241 0.344629 12.0914 -0.291243 -0.891045 0.348162 163 163 162
0.603655 0.379135 12.0796 0.464317 -0.42665 0.776131 136 137 135
0.579244 0.356629 12.1086 0.762708 0.0700852 0.642934 159 158 156
0.547565 0.375763 12.1393 0.543709 -0.0603142 0.837104 160 159 158
0.282808 0.60385 12.1231 0.567464 -0.265757 0.779332 163 163 161
0.254919 0.601975 12.1436 0.725468 -0.431604 0.536111 156 154 153
0.239147 0.57733 12.1428 0.306764 -0.657794 0.687897 70 69 70
0.116855 0.651677 12.1711 0.0373815 -0.619069 0.784447 93 114 125
0.0995056 0.640916 12.1876 0.800433 0.0726751 0.595 89 115 127
0.0706742 0.656399 12.2031 0.105885 -0.833012 0.543028 85 111 124
0.0159337 0.648457 12.2194 0.788423 -0.357394 0.500659 104 113 118
0.000348654 0.630745 12.2532 0.58793 -0.243544 0.771379 157 157 155
-0.0270562 0.643499 12.2565 0.0759382 -0.488745 0.869115 153 153 152
0.172886 0.270351 12.4103 0.615165 -0.470041 0.632956 122 136 145
0.154013 0.25647 12.4437 0.793665 -0.422565 0.437647 114 136 149
0.120376 0.263176 12.4688 -0.246793 -0.947651 0.202608 112 132 145
0.138909 0.245616 12.4659 0.791729 -0.339648 0.507744 113 134 148
0.112436 0.246161 12.4923 -0.235237 -0.911086 0.338505 109 128 140
0.0612619 0.259223 12.4855 0.00272149 -0.725709 0.687996 117 129 135
0.0331215 0.27334 12.4997 -0.1303 -0.772408 0.621617 145 146 148
-1.21206 0.594877 12.9779 0.03456 -0.76942 0.637808 63 61 60
-1.24408 0.593396 13.0005 0.675702 -0.667075 0.313749 156 155 153
4.61168 1.78445 8.74347 -0.176526 -0.570443 0.802143 94 114 124
