ply
            format ascii 1.0
            element vertex 4941
            property float x
            property float y
            property float z
            property uchar red
            property uchar green
            property uchar blue
            end_header
1.882262 1.098152 11.908491 117 121 122
1.922268 0.962724 12.016406 121 125 126
1.174587 0.578395 12.374784 21 22 26
1.198462 0.645754 12.447440 20 22 23
1.086982 0.645535 12.437492 144 143 139
2.519403 -0.468688 8.849905 26 25 27
2.620236 -0.456568 8.902668 160 164 165
2.305267 -0.429516 8.928215 148 152 153
3.471396 0.631059 8.980740 217 212 213
3.690542 0.782287 8.870202 38 42 43
2.299357 0.056965 9.632215 33 31 31
3.228059 0.490330 9.234024 213 210 206
2.106065 0.188406 9.763638 38 33 34
2.038143 0.241014 9.942234 53 48 49
2.128826 0.448241 9.921276 148 151 155
-0.936046 -0.905585 11.308488 43 41 41
-0.804088 -0.740253 11.335388 30 27 29
-0.990370 -0.601131 11.486713 25 20 22
2.511925 1.288702 10.498438 125 126 124
1.989139 1.073477 10.947485 150 139 119
4.119610 3.488630 10.216528 210 193 167
-0.314127 0.073880 11.948678 148 153 152
0.331374 -0.025417 12.097095 160 164 165
-0.388889 0.074656 11.979318 144 147 151
-0.557800 0.103521 12.049735 142 147 148
-0.214601 0.813564 12.524837 91 91 85
2.280791 0.069489 9.625625 31 29 29
2.435159 0.190164 9.625262 150 151 149
2.631947 0.350389 9.590206 159 155 150
2.186254 0.283754 9.946074 55 47 47
-1.041636 -0.824410 11.343364 22 19 21
-1.055251 -0.713250 11.417755 30 28 28
-0.500983 -0.221909 11.761766 180 182 182
-0.161891 0.082105 11.899332 155 156 160
3.999989 3.164215 10.365661 213 196 169
-0.341713 0.082574 11.939665 141 144 148
0.361186 0.068001 12.054499 163 165 165
-0.675323 0.171075 12.110993 152 156 157
-1.228286 1.024572 13.002288 33 31 31
0.057951 -0.861394 10.785500 146 149 153
0.560454 -0.928108 10.920694 155 159 160
-0.979138 -0.581681 11.467085 32 27 28
-0.528562 -0.062418 11.698803 178 182 183
-0.462463 -0.068475 11.852571 26 26 26
-0.701975 0.028746 11.928419 36 36 36
-0.527406 0.139770 11.999474 163 167 168
3.961939 1.035795 8.677518 41 46 45
-0.858283 -0.353491 11.596698 38 37 39
-0.613492 -0.052525 11.895610 42 41 43
-0.319276 0.023862 11.993500 164 169 168
-0.537832 0.098219 12.034980 150 155 154
-0.690823 0.157526 12.109875 154 157 161
-0.826640 0.201214 12.230201 163 164 168
-0.732148 0.039775 11.950375 30 30 30
2.575202 -0.620340 8.958577 108 110 111
2.543628 1.704958 13.838621 90 91 95
0.267045 -2.099125 10.486051 138 142 143
0.088769 -1.219393 10.132859 29 24 23
0.030122 -1.138755 10.126781 32 30 30
4.622896 1.710976 8.518449 81 87 94
2.212527 0.296028 9.717398 89 85 74
0.162354 -0.748440 10.793726 147 150 154
-0.399787 -0.562341 10.787985 27 24 26
-0.351027 -0.533271 10.789517 147 151 152
-0.124048 -0.545329 10.837669 149 149 149
-0.146788 -0.363876 11.035952 151 153 154
-0.749152 -0.486295 11.399213 153 157 158
-0.370187 -1.001062 12.119061 134 129 126
0.912353 1.368543 13.080564 86 86 80
0.506827 1.629098 13.402530 103 101 93
2.101482 1.613836 14.034555 160 165 168
0.259640 -2.203146 10.553654 32 29 31
0.034726 -1.139933 10.130839 30 27 29
-0.485525 -0.711729 10.898838 35 30 31
-0.351630 -0.533935 10.792480 152 154 154
-0.120679 -0.551074 10.842546 152 152 152
2.846368 1.765492 13.693007 124 126 127
0.193476 -0.720593 10.830316 47 42 41
-0.564581 -0.664746 10.847097 151 153 154
-0.016691 -0.439590 11.160421 160 164 165
0.183742 -0.729842 10.843133 48 43 42
-0.293686 -0.569149 10.722175 21 19 19
-0.229371 -0.365998 11.001641 30 28 28
-1.335171 0.724195 12.922173 35 37 38
-1.292161 0.943749 12.904844 42 41 43
-0.266361 -0.587162 10.729838 28 26 26
-0.689178 0.143764 12.111964 161 165 166
-1.032222 0.412060 12.474878 154 156 156
-0.479011 -0.049454 11.855908 25 24 26
-0.665249 -0.081311 11.730222 150 152 153
0.022795 -1.244882 9.971286 58 53 54
0.033522 -1.229530 10.009724 60 45 49
2.034737 0.933733 12.054684 142 144 144
2.491982 1.695711 13.780111 106 111 112
0.078594 -1.259015 9.968731 44 37 34
0.062523 -1.064211 10.486832 103 94 91
0.257657 -0.823621 10.867778 138 144 149
0.228925 -0.764644 10.812488 148 152 153
-0.691129 -0.859881 11.822212 78 70 70
-0.599734 -0.983272 11.972806 102 102 102
-0.735734 -0.753963 11.821792 105 100 99
-0.852008 -0.373428 11.659595 31 31 31
2.007432 0.891151 11.889771 130 133 137
1.977004 0.976680 12.155966 42 40 40
-0.521634 0.376314 11.991053 159 161 162
-1.808040 3.399268 10.310081 81 86 85
-0.281925 0.981803 12.693092 65 62 48
0.073274 -1.056364 10.476119 105 96 93
0.164966 -1.058620 10.828455 21 20 22
0.126297 -1.030485 10.799961 158 162 163
0.233579 -0.777924 10.818435 153 158 159
0.204043 -0.712232 10.811471 45 41 40
-0.549812 -1.024767 11.960683 25 23 23
-0.684777 -0.857679 11.826159 74 66 66
-0.679421 -0.807219 11.875572 88 79 75
-0.743130 -0.757117 11.819233 84 76 76
1.151408 0.548527 12.513495 55 62 71
1.009950 1.373450 13.232139 47 45 45
2.684864 1.714733 13.746579 103 108 111
0.134491 -1.358731 10.090353 60 48 48
0.109101 -0.971235 10.284032 39 35 34
-0.481812 -0.105305 11.856289 27 26 28
-0.700303 0.179160 12.130781 152 154 154
3.622910 1.946300 13.205894 75 87 105
0.002763 0.833919 12.864888 42 47 46
3.588944 1.902912 13.219821 75 87 105
-0.061517 1.274158 12.822425 46 50 51
0.080767 -1.343948 10.089578 133 102 71
0.129194 -1.331832 10.287610 52 39 37
0.552592 -1.028546 11.409987 34 36 36
2.030067 0.782489 11.890381 142 140 140
2.034906 0.807648 11.953650 171 173 173
-0.487080 -0.052837 11.766134 62 67 70
1.965251 0.946179 12.100776 152 152 152
1.245842 2.846172 13.353482 107 98 89
2.701782 1.097065 15.019231 105 106 110
0.370709 -2.617918 10.972141 38 33 32
0.076680 -1.116915 9.553742 151 153 154
0.190713 -1.891847 10.553305 35 33 33
0.171868 -1.804362 10.476885 134 90 49
0.170049 -1.808046 10.531411 179 172 163
0.164654 -1.798369 10.583388 190 178 150
0.048151 -1.269059 10.078487 35 81 99
0.118907 -1.421846 10.276497 143 142 146
0.012377 -1.155554 10.142455 33 30 32
0.137677 -1.282333 10.352299 51 46 43
0.474236 -0.922464 10.994029 157 161 162
-0.069600 -0.778851 11.050035 154 156 157
-0.408143 -1.115580 12.093435 117 110 107
-0.535767 -1.012136 11.956571 25 20 21
-0.461535 -1.069481 12.042900 75 67 67
-0.743811 -0.810423 11.768073 89 84 81
-0.384467 -1.038212 12.133022 143 136 133
-0.366444 -0.164554 11.706749 166 168 168
-0.109464 0.707565 12.514332 104 99 84
-0.101103 0.617286 12.967471 56 60 61
0.003424 0.902987 13.014603 150 154 155
0.161066 -1.162571 9.502323 26 24 24
0.058698 -1.268155 9.823957 160 164 165
0.167487 -1.806599 10.530387 181 173 166
0.077871 -1.304713 10.045319 175 161 142
0.130337 -1.409982 10.273355 144 143 145
0.105012 -1.353854 10.210604 148 141 138
0.154082 -1.188644 10.551956 59 54 53
0.398194 -0.966509 11.296462 143 132 112
0.208836 -0.934910 11.247171 29 24 26
-0.067421 -0.764866 11.045037 161 163 164
-0.770402 -0.885290 11.718237 77 70 67
-0.766196 -0.829915 11.778415 78 73 70
-0.364015 -1.022134 12.125515 147 140 137
3.646909 1.967610 13.208643 65 78 94
2.560216 1.698009 13.868929 142 144 145
2.141611 1.544855 14.204400 72 74 75
0.147670 -1.178708 9.491670 23 21 21
0.205548 -1.452550 10.715611 160 162 162
1.190719 0.647244 12.590858 165 167 168
0.039962 -1.170694 10.166490 28 23 24
0.220142 -0.875472 10.445489 52 54 55
0.349252 -2.547332 10.776302 28 27 29
0.170372 -2.439907 10.728877 113 108 105
0.168625 -1.771428 10.496135 170 154 137
0.132862 -1.407394 10.283927 145 146 144
0.203103 -1.581283 10.689876 145 143 142
0.142099 -1.276512 10.295556 136 113 87
0.343557 -2.641775 11.039786 33 30 32
0.331388 -2.601238 11.019662 167 169 170
0.104112 -2.384178 10.714667 19 18 20
0.177211 -1.747526 10.522947 132 88 47
0.062946 -1.292400 10.003001 41 37 36
0.049933 -1.238150 9.959184 51 46 47
-0.000328 -1.227366 9.942918 175 177 178
0.187019 -0.670337 9.316952 159 159 159
0.141443 -0.643633 9.288961 27 24 26
0.129504 -1.359592 10.250144 37 42 41
0.312602 -1.683584 10.826865 173 173 173
0.187534 -1.537227 10.725785 162 164 165
0.542123 -1.075827 11.357657 35 33 33
0.207938 -2.483491 10.828062 168 173 172
0.028464 -1.062042 9.566595 31 33 34
0.114137 -1.380532 10.106946 54 42 48
0.008489 -1.325320 10.025276 36 35 31
0.200950 -0.669573 9.316515 168 168 168
0.144621 -0.648807 9.285272 29 26 28
0.299010 -1.630064 10.821580 46 45 47
0.543086 -1.077668 11.356771 35 33 33
-0.523333 -1.172712 12.007058 100 88 86
0.543342 -1.084506 11.354035 38 33 34
0.535690 -0.977232 11.351352 169 171 172
-0.690885 -0.035554 11.718526 126 131 134
0.138103 -1.207742 9.542157 161 163 163
0.074012 -1.316083 9.999274 59 52 49
0.118452 -1.462186 10.256906 58 46 34
0.081150 -1.340528 10.088472 189 172 151
0.093784 -1.363570 10.164354 47 43 42
0.141521 -1.317225 10.331439 134 112 87
0.386287 -1.121580 11.141367 91 89 89
0.055073 -1.142551 9.553473 184 183 185
0.153609 -1.818454 10.611297 202 191 164
-0.038188 -1.103072 9.605681 39 36 38
0.084597 -1.354326 10.049093 131 89 42
0.422051 -1.000990 10.930310 28 23 25
0.412044 -1.145929 11.167452 175 177 178
0.436180 -0.987689 10.986348 169 170 174
0.354924 -1.008024 11.305697 177 182 181
-0.656349 -0.763256 11.758517 90 82 82
0.681941 -2.549866 10.827650 161 161 161
0.303778 -2.500379 10.682280 22 19 21
0.231424 -2.426010 10.773447 169 171 171
0.199964 -2.385043 10.730280 40 38 38
0.222950 -2.028664 10.429231 45 43 43
0.171262 -1.813388 10.465492 128 87 48
0.189515 -0.831200 9.145963 44 41 43
0.051877 -1.300810 9.996439 42 37 36
0.221840 -1.460278 10.655601 131 86 43
0.160188 -1.323316 10.678778 40 36 35
0.455227 -1.049572 10.924218 174 179 180
0.421266 -0.998757 10.928481 28 23 25
0.374187 -1.045848 11.075240 182 181 183
0.376603 -1.099173 11.168468 40 32 33
0.529455 -1.012896 11.358611 171 173 173
0.248009 -2.421200 10.786875 173 175 175
0.184706 -2.378522 10.718050 29 27 27
0.169861 -2.335400 10.656526 30 30 30
0.172821 -1.799600 10.530191 188 184 173
0.153927 -1.322278 10.680750 41 33 34
0.467569 -1.066228 10.916371 163 165 166
0.437148 -1.152370 11.163676 168 170 171
0.424161 -0.984992 11.024062 163 167 168
0.372237 -1.088036 11.164392 38 32 33
0.280460 -1.630937 10.815492 41 40 42
0.276845 -1.383181 10.860502 26 21 23
0.378981 -1.073050 11.160193 37 32 33
0.546382 -1.081396 11.350972 36 31 32
0.468296 -1.073067 10.993385 170 172 172
0.505666 -2.555838 10.517591 54 49 48
0.388450 -2.386058 10.446737 54 50 49
0.288404 -2.467789 10.643542 245 234 236
0.154926 -2.385942 10.730196 26 24 24
0.152760 -1.840326 10.565590 182 175 160
0.131633 -1.283953 10.298939 131 109 84
-0.119128 -1.163866 12.421484 37 37 37
2.632463 3.143771 9.917399 144 149 152
2.542193 3.210768 9.879112 47 49 50
0.419055 -2.533841 10.535915 133 131 130
0.475672 -2.482656 10.488411 51 46 45
0.510433 -2.423958 10.453817 159 163 164
0.372126 -2.588828 11.001219 170 172 172
0.367840 -2.277556 10.520805 169 173 174
0.197913 -2.440978 10.766200 162 166 167
0.253214 -2.293845 10.579399 165 170 169
0.131347 -2.329427 10.650566 25 27 28
0.205804 -1.862668 10.546226 46 42 41
0.168336 -1.820158 10.533820 187 178 165
0.108521 -1.622010 10.203254 130 87 44
0.048972 -1.073314 9.421423 145 141 140
0.078142 -1.302786 10.044088 198 185 169
0.041488 -1.246946 9.967236 38 33 35
0.136433 -1.395412 10.322262 48 42 37
0.139087 -1.286937 10.353480 51 41 41
0.218384 -1.458006 10.657726 127 80 36
0.247660 -1.420745 10.735806 169 171 171
0.193729 -1.159874 10.522648 71 66 65
0.168026 -1.138902 10.488313 164 168 169
2.182555 0.360040 9.583793 144 139 136
0.155913 -0.975489 10.619626 169 171 172
0.228075 -0.957415 10.683473 176 180 181
0.268360 -1.110701 11.097088 174 179 178
0.342430 -0.998058 11.029649 173 175 176
0.525231 -1.078438 11.361145 35 33 33
-0.294240 -1.702793 12.080121 118 113 112
-0.277843 -0.661050 10.692192 33 27 28
-0.281387 -1.573932 12.154909 168 170 170
-0.262836 -1.495961 12.326427 167 172 171
3.081426 1.961422 9.661577 54 51 46
-0.237192 -1.351677 12.288445 161 163 164
-0.867144 -1.217276 11.639239 95 84 80
-0.150030 -1.098003 12.385091 39 37 37
-0.700201 -0.995673 11.866896 28 24 23
1.965314 1.466552 11.076957 76 78 78
2.543936 3.195626 9.897294 42 44 45
0.013969 2.322187 12.251040 66 67 71
0.394040 -2.346985 10.423437 152 150 149
0.358090 -2.633420 10.971166 37 32 29
0.381099 -2.580960 10.997354 168 170 170
0.136713 -2.333100 10.651708 29 28 30
0.160130 -1.820875 10.534535 187 178 165
0.184227 -1.734726 10.521671 132 86 39
0.150632 -1.763399 10.660110 133 125 102
0.134565 -1.278534 10.347349 45 40 41
0.154202 -1.153184 10.477667 163 165 166
0.194104 -1.155649 10.529653 72 67 66
2.217314 0.400576 9.643448 38 33 34
0.136345 -0.981992 10.619650 171 173 174
2.103570 0.306316 9.746368 148 136 112
0.238801 -0.947610 10.682520 179 183 184
-0.229722 -1.580995 12.064260 157 157 157
-0.238290 -1.321048 12.288020 153 155 156
-0.149196 -1.091406 12.378613 37 35 35
2.724543 3.098651 9.921842 152 154 155
2.566883 3.155220 9.831344 161 164 162
2.545185 3.190145 9.898093 42 44 45
0.115884 -1.493489 10.221946 54 43 45
0.105018 -1.392972 10.126453 57 45 41
0.214418 -1.473490 10.645289 127 82 38
-0.192817 -1.203170 12.334870 32 30 30
2.848154 2.854220 9.796118 39 37 37
2.553675 3.177477 9.900838 58 55 57
0.155769 -1.798110 10.424878 128 86 41
0.114950 -1.501125 10.213618 58 46 46
0.268946 -1.149994 10.770514 24 19 21
0.525425 -1.095064 11.460950 168 170 171
-0.119482 -0.594027 10.717838 35 30 31
0.073915 -0.524030 11.081922 32 27 28
2.850570 2.850824 9.793618 41 39 39
0.240299 -1.453109 10.866477 30 28 28
0.188399 -1.109939 10.627849 41 36 37
0.411089 -1.045888 11.169434 36 31 32
0.251545 -1.477898 10.866385 31 28 30
0.271302 -1.111897 10.724304 25 22 24
0.606742 -1.260986 11.475992 39 35 34
0.308897 -0.934234 11.184730 33 28 29
0.333269 -1.005603 12.427874 32 30 30
-0.180498 -1.171065 12.318138 33 31 31
0.138959 -1.859934 10.597857 46 40 35
0.005718 -1.082230 9.438172 205 201 200
-0.010986 -1.250937 10.023954 45 38 35
2.390172 0.946583 9.467844 41 40 44
3.009421 1.867117 9.547256 153 155 155
3.112897 2.030736 9.692267 173 166 149
2.109410 1.694243 10.031131 43 38 39
2.339003 1.678811 10.506301 37 31 24
2.237513 1.745441 10.300547 171 173 174
1.912643 1.500188 10.936749 25 23 22
0.262409 -2.460472 10.596788 28 26 26
0.370880 -2.636997 11.023856 32 29 31
0.150778 -1.983484 10.587510 163 158 155
0.114046 -1.835050 10.613707 202 189 163
0.044012 -1.440913 10.031619 134 86 38
0.067812 -1.133639 9.548760 174 178 179
-0.032646 -1.307968 9.854237 154 158 159
0.106338 -1.372716 10.253645 40 40 40
-0.029242 -1.236108 10.049227 202 190 166
2.044907 -0.077219 9.702446 34 28 29
1.957733 0.198363 9.704705 29 24 26
0.392680 -1.075871 10.925638 168 170 170
3.685057 1.484818 8.696761 180 182 182
0.412080 -1.366408 11.706147 168 172 173
0.561755 -1.084473 11.500215 161 166 167
0.217451 -0.889389 11.205509 160 162 163
-0.122716 -1.439699 12.237469 152 157 158
0.058164 -0.668162 11.054752 127 123 112
2.380312 1.735797 10.106328 36 37 33
2.087049 1.677538 10.270663 123 125 125
1.932236 1.376635 10.879222 186 168 139
2.579302 3.167093 9.835914 150 152 152
4.393118 0.601455 16.556932 99 101 102
0.867209 2.201027 12.978254 80 84 85
0.763793 2.288514 12.834962 60 63 67
0.262943 -1.863630 10.486005 185 183 175
0.184203 -1.915366 10.577955 33 31 30
0.070435 -1.407147 9.819252 55 50 51
0.032697 -1.295542 9.838164 156 158 158
0.236705 -1.466507 10.893668 35 34 36
0.201530 -1.312732 10.676408 38 33 34
0.075985 -1.135717 10.320264 177 179 179
0.574443 -1.376149 11.473334 37 32 31
1.922729 0.129913 9.788767 32 30 30
0.395777 -1.079607 10.924417 174 176 176
0.636476 -1.340450 11.554243 29 27 27
0.410445 -1.157768 11.165076 167 169 169
0.442035 -0.995156 11.004446 163 165 166
0.402405 -1.058174 11.101198 184 188 189
0.582389 -1.019288 11.459271 157 161 162
-0.176411 -1.611923 12.185402 29 27 27
0.047694 -0.708267 11.009452 133 126 109
-0.252959 -1.474179 12.117344 168 172 173
0.060469 -0.666751 11.048130 134 127 112
2.354317 1.708079 10.091400 34 38 39
2.245140 1.661084 10.233251 46 42 41
2.183073 1.730847 10.282608 131 133 133
2.048051 1.509681 11.081401 82 84 85
2.028296 1.403889 11.371484 28 31 35
2.629524 3.067046 9.845070 70 72 73
0.161934 -1.816462 10.435107 128 84 37
0.155818 -1.795486 10.631744 135 128 108
0.030272 -1.276538 9.977425 37 32 33
0.185711 -1.171518 10.370358 120 81 37
-0.022305 -1.162856 10.337884 159 163 168
1.978782 0.099845 9.561121 38 36 36
2.024439 0.051959 9.873116 31 26 28
0.641254 -1.336045 11.544863 30 25 26
0.286198 -0.924275 10.675035 164 166 167
-0.248578 -1.703903 11.835736 156 161 160
1.957438 0.254961 9.950131 40 38 37
0.557653 -1.087448 11.460701 150 154 155
0.441148 -0.989125 11.347136 168 173 174
-0.212729 -1.634703 12.153946 34 32 32
-0.120205 -1.390549 12.304626 33 31 30
2.239309 1.787854 10.319437 156 158 159
1.967643 1.383161 10.904285 184 172 148
2.417757 1.752088 10.669692 32 34 35
0.029162 -1.282001 9.959742 36 32 31
0.227459 -1.472208 10.628850 121 78 35
0.268080 -1.377951 10.701262 174 173 175
0.171817 -1.208371 10.350325 125 83 38
0.275059 -1.171549 10.901053 162 164 165
0.360160 -1.419955 11.741737 32 30 30
2.367370 1.724957 10.036803 76 74 64
0.316256 -0.853073 10.688658 170 172 173
0.317907 -0.801755 10.700210 166 168 168
0.132363 -1.288376 9.430873 53 46 43
0.120512 -1.846105 10.562726 191 183 170
0.041265 -1.118716 9.432190 174 176 177
0.032276 -1.283372 10.012444 57 43 44
2.041245 0.155477 9.597561 35 35 35
0.124135 -0.722524 11.395586 211 215 216
2.482765 3.159292 9.867843 51 50 52
0.309801 -2.277224 10.522868 168 173 176
0.329349 -2.310266 10.597728 31 31 31
0.177262 -2.400836 10.739830 37 35 35
1.917411 -0.942720 9.054099 53 44 40
0.252846 -1.874319 10.493494 205 199 192
0.075563 -1.631018 10.202596 123 81 34
0.029347 -1.062425 9.388663 166 168 169
0.026685 -1.316083 10.045140 190 177 161
0.257859 -1.355600 10.696965 167 171 172
0.059096 -1.117357 10.088339 43 42 44
0.166372 -1.327567 10.668423 38 36 36
0.575508 -1.322095 11.610869 158 160 161
2.146466 0.235308 9.602722 128 126 125
0.330719 -1.431790 11.720812 30 28 28
0.320078 -1.051804 10.905869 22 20 20
0.341888 -1.034674 10.965914 161 165 166
2.145112 0.337912 9.741190 151 140 113
0.556242 -1.203598 11.734967 159 163 164
0.290564 -0.829954 10.791769 169 172 176
0.571661 -1.146203 11.759993 29 27 27
3.428177 1.799099 9.920745 56 58 52
2.494596 1.506262 10.706294 148 152 153
2.307652 1.677263 10.227723 75 70 69
2.166404 1.713559 10.095594 163 165 165
1.981671 1.135754 11.374008 28 29 27
1.857208 0.903278 11.777086 159 161 162
2.139793 1.855826 10.166949 160 162 162
1.847109 1.458077 10.912786 25 23 23
1.748756 1.092492 11.740429 44 46 47
1.886882 1.487857 11.000985 156 158 159
1.843787 1.524890 10.921466 148 150 150
1.727664 1.091612 11.802012 151 153 154
1.765847 1.093762 11.951834 53 51 51
2.527269 3.173403 9.890214 42 41 43
0.184236 -2.451655 10.770267 159 163 164
0.128439 -2.334756 10.648571 32 27 28
0.206955 -1.975327 10.408949 154 158 159
0.124956 -1.220618 9.374843 74 66 66
0.040173 -1.312584 10.049330 162 153 140
0.102039 -1.293767 10.340445 44 37 40
0.232442 -1.366851 10.685157 178 180 180
0.247332 -1.263119 10.604027 144 146 146
0.121407 -1.264753 10.846094 150 154 155
0.173165 -1.152880 10.873151 156 160 161
0.099567 -0.952232 10.377872 44 46 47
0.522499 -1.127853 11.446922 162 164 164
1.998892 0.250827 9.763331 143 133 116
0.558702 -1.208714 11.737585 159 163 164
2.042946 0.300213 9.967564 41 36 37
3.314033 1.735808 9.713253 231 234 232
3.274460 1.833801 9.831343 160 162 162
3.190734 1.822913 9.824868 155 157 157
3.030017 1.860883 9.696895 180 168 144
2.035083 1.239895 11.444957 159 161 162
1.735325 1.081629 11.730131 46 47 51
1.869961 1.484477 11.002705 164 166 167
0.075089 -1.325753 9.529575 59 54 55
0.198092 -1.275509 9.651789 160 162 163
0.194828 -1.720901 10.730614 34 32 32
0.025735 -1.414344 10.044892 130 84 37
0.063247 -1.141116 9.573105 163 165 166
0.017966 -1.322255 10.054293 169 160 151
0.176952 -1.304309 10.669422 44 39 40
0.169625 -1.176607 10.873330 170 174 175
0.572227 -1.224074 11.746077 167 171 172
2.107432 0.963522 10.730479 204 200 195
-0.828491 -0.911033 11.721759 41 40 42
2.042723 1.003465 10.820333 76 76 76
2.181947 1.327686 11.500916 155 155 155
0.038510 -1.423540 9.961955 159 166 169
0.056004 -1.136506 10.378442 168 173 172
0.321460 -1.015724 11.026100 157 159 160
2.034076 0.311392 9.773152 151 140 120
1.850058 1.445370 10.859550 35 31 30
0.046615 -1.438787 10.109900 67 41 34
0.153067 -1.243392 10.718152 45 40 41
0.449813 -1.209530 11.160499 167 169 170
0.237058 -1.097143 11.134589 31 29 28
3.278476 2.845235 10.652882 51 53 54
0.604299 -1.257245 11.475091 37 31 32
-0.573016 -0.461678 11.652779 45 43 43
0.378427 -2.524895 10.500152 136 131 130
0.408468 -2.364941 10.462210 45 41 40
0.180066 -1.225574 9.375685 75 70 67
0.081866 -1.064437 9.451023 194 188 183
0.081132 -1.371343 10.196245 145 138 135
-0.018715 -1.113799 9.582164 71 69 69
2.137315 0.201984 9.553359 44 44 44
2.109524 0.261798 9.969030 163 161 161
3.153322 1.779700 9.461253 199 187 163
1.073946 0.350135 11.072605 52 53 51
3.125468 2.172671 9.613064 127 129 130
3.638376 2.148457 12.882360 40 47 64
0.499732 -2.451823 10.502655 47 42 43
0.143858 -1.827162 10.529786 197 186 164
2.183352 -0.417354 9.004313 28 29 33
0.078322 -1.307842 9.613135 161 165 166
2.198106 -0.473110 9.156795 89 89 89
2.189096 -0.415261 9.054056 153 155 156
0.148618 -1.746305 10.716891 36 34 34
0.102702 -1.279486 9.871538 161 165 166
0.088654 -1.027777 9.463587 51 46 47
0.070377 -0.959635 9.493057 169 171 172
0.234566 -1.273360 10.611349 145 150 148
3.034997 0.543106 9.151546 108 110 111
2.115026 0.042943 9.611248 141 139 138
2.967430 0.574901 9.089148 167 164 166
2.118658 0.079864 9.720312 37 33 32
3.465610 1.068802 8.817354 140 133 116
2.155939 0.275319 9.723805 31 26 25
2.027633 0.302374 9.969298 42 37 38
0.512046 -1.054724 11.900990 158 160 160
2.297437 0.740235 9.615985 53 49 44
-0.179479 -0.658859 10.817406 31 29 29
2.566866 1.111315 9.977918 197 194 189
-0.148921 -0.552006 11.107856 119 113 94
3.447324 1.723679 9.974429 39 36 32
1.032283 0.210550 11.026012 114 113 109
2.080494 0.819909 12.040991 45 43 43
2.503446 1.537789 10.661203 61 57 52
2.714407 2.029413 10.839946 152 154 154
-0.210933 0.882766 12.507062 159 146 124
0.145020 -2.032996 10.522469 152 154 155
0.534763 -1.091032 11.491893 150 152 152
0.282046 -2.326561 10.489838 30 28 28
0.250175 -2.271192 10.509604 156 160 161
0.244209 -2.320929 10.622724 146 151 152
0.225510 -1.948041 10.481306 48 43 42
0.161697 -1.835922 10.435826 127 85 43
0.145435 -1.824673 10.529473 180 169 147
0.116132 -1.304618 9.534460 45 43 43
0.085831 -1.306180 9.617250 161 165 166
2.095444 -0.389048 8.902031 152 151 153
0.226550 -1.711496 10.652126 35 30 29
0.174406 -1.202086 9.555181 166 168 169
0.120782 -1.140937 9.414055 32 30 30
0.145095 -1.156512 9.531094 47 47 47
0.069749 -1.292028 9.844337 162 166 167
0.277227 -1.520317 10.733025 162 165 169
0.049672 -1.308266 10.055741 182 172 162
0.258539 -1.505207 10.729210 169 169 169
-0.015676 -1.084550 9.605224 57 55 54
0.066525 -0.954950 9.494140 174 176 177
0.018854 -1.182381 10.116806 142 131 104
0.208191 -1.245072 10.568671 174 179 178
0.511494 -1.336766 11.682815 195 197 197
0.410001 -1.166292 11.164432 159 161 162
3.758966 1.242240 8.691679 38 37 39
2.100458 0.191733 9.724075 116 113 92
3.656902 1.275660 8.757719 155 142 120
0.524956 -1.156054 11.734826 30 25 26
2.192343 0.369137 9.754663 156 141 115
3.774513 1.363121 8.842101 74 71 67
0.326239 -1.185625 11.904238 152 157 156
3.862165 1.472153 8.893646 165 166 170
0.411330 -1.017491 11.912075 41 41 41
0.422464 -0.967366 11.878822 158 160 161
0.268820 -0.865630 11.483926 169 171 172
0.079678 -0.638617 11.293666 30 25 26
2.180274 0.999047 10.899002 224 220 219
3.071305 1.971575 9.687273 49 47 47
2.514349 1.371713 10.618233 61 55 50
3.339231 2.193750 9.545486 65 59 54
1.447999 0.740012 10.955969 93 90 86
2.514627 1.454037 10.668288 55 52 48
2.467444 1.529552 10.450228 39 37 36
2.080817 0.822612 12.039324 40 38 38
2.049348 0.894652 11.868453 146 152 151
2.277523 1.648767 10.067633 70 65 64
2.346983 1.658052 10.178632 141 132 118
2.030360 1.005693 12.019787 147 149 150
2.014002 1.523822 10.730103 175 176 174
2.241183 1.905147 10.285337 38 35 37
1.807865 1.558838 10.824202 36 39 43
2.891349 2.677281 9.841418 148 150 150
-0.209328 0.879734 12.517141 155 143 119
0.812104 2.128095 12.965818 90 94 95
0.485402 2.244546 12.636292 97 99 107
0.242137 -2.255626 10.517929 153 157 158
1.915394 -0.907822 9.047434 38 34 33
0.103211 -1.969787 10.614330 155 159 160
0.165068 -1.816950 10.433930 130 84 37
0.150315 -1.812877 10.533260 188 180 163
0.137280 -1.310585 9.473607 143 175 181
0.083932 -1.390060 9.628859 73 65 66
0.169569 -1.197986 9.392046 54 50 49
0.101634 -1.502801 10.226431 56 42 43
0.125076 -1.392646 10.143751 53 42 34
0.103048 -1.015666 9.493758 59 54 53
0.126929 -1.192336 9.929323 158 160 160
-0.026632 -1.079283 9.585107 63 59 58
-0.004564 -1.093116 9.684139 171 175 176
0.015685 -1.003408 9.554030 60 55 56
0.050246 -0.944448 9.494764 163 165 166
0.238635 -1.247181 10.586798 172 178 173
0.172002 -0.963973 10.499881 40 38 38
2.169769 0.182521 9.580632 43 41 41
0.315893 -1.015699 11.014806 158 162 163
0.526807 -1.145821 11.733738 30 25 26
2.128766 0.367438 9.598899 142 138 133
2.041607 0.300751 9.964217 45 37 38
0.525682 -1.012460 11.822162 38 33 34
0.323620 -0.861423 11.523022 173 175 175
2.442748 0.724525 9.867464 55 54 50
-0.057439 -0.636699 10.954773 133 126 107
3.042013 1.622219 9.503440 189 179 192
3.210082 1.811468 9.843112 192 196 191
3.070787 1.881361 9.726502 174 161 139
1.994668 1.064547 10.770058 221 207 184
3.599940 2.450696 9.561469 172 155 129
2.314325 1.679171 10.095321 57 59 59
2.322589 1.741269 10.195837 35 33 33
2.042345 1.086195 11.753964 154 156 157
1.902156 1.000124 11.819528 50 48 48
1.931933 1.099787 11.606237 53 48 47
2.239352 1.816475 10.189677 35 33 33
2.957602 2.582311 9.751763 59 54 55
2.890342 2.666343 9.856036 146 146 146
2.087951 -0.378585 8.906788 158 157 159
2.248114 1.166867 10.884890 222 208 186
2.378735 1.737373 10.408395 38 33 34
0.078919 -1.417105 9.757811 53 48 47
0.185635 -1.191356 9.594050 167 169 170
0.082295 -1.157119 9.582582 163 167 168
0.015837 -1.227966 10.070910 184 172 144
3.545520 1.102515 8.709517 44 43 45
2.151779 0.369394 9.588759 144 140 135
-0.148011 -0.562600 11.219144 34 30 29
2.440518 1.478938 10.412007 41 36 33
2.307086 1.737702 10.193835 34 32 32
1.781499 1.084749 11.528612 43 41 41
1.982130 1.263472 11.444837 125 127 128
0.125896 -1.753335 10.400895 128 84 37
0.111585 -1.415645 9.769024 52 47 48
0.077513 -1.452288 9.960136 156 160 161
0.160508 -1.179641 9.454262 50 48 48
0.078309 -1.287475 9.746215 157 162 163
0.382416 -1.006311 10.495270 153 156 161
2.134543 0.044077 9.463146 171 173 174
3.753429 1.154884 8.772318 50 50 50
0.169770 -1.095011 10.013103 167 169 169
0.336766 -2.649096 10.965004 40 35 34
0.296957 -1.849626 10.690299 43 34 30
0.058862 -1.298911 10.015141 65 60 51
0.007321 -1.251507 10.028228 44 35 32
3.012648 0.578615 9.072406 203 201 201
2.133079 0.113463 9.813650 162 161 163
0.093341 -0.666114 11.350659 180 182 182
1.112438 0.314931 11.003754 49 47 46
1.047448 0.286744 11.040123 41 39 38
1.086367 0.323925 11.029315 151 150 146
2.245142 1.049806 10.814899 211 213 213
2.498307 1.257924 10.539431 52 56 57
2.098280 1.024774 10.858253 52 48 47
1.377549 0.678231 11.007144 134 109 37
1.446508 0.748682 10.994936 75 75 75
2.526002 1.543200 10.295780 42 44 44
2.546191 1.524850 10.720163 149 147 147
2.270198 1.612997 10.100506 151 140 120
1.780573 1.031361 11.715477 130 125 124
1.767127 1.103860 11.758452 42 45 50
-0.180464 0.716949 12.495951 50 51 42
0.024166 2.471948 12.122242 161 160 162
0.600326 -2.610123 10.642797 155 159 160
0.428727 -2.532192 10.541892 126 120 121
0.370414 -2.428592 10.486213 86 81 80
0.349231 -2.362125 10.473147 128 116 110
0.160895 -2.411303 10.737558 37 35 35
1.911647 -0.990716 9.116826 144 131 123
0.213344 -1.883814 10.526505 46 43 39
0.153313 -1.872403 10.522577 47 42 41
0.128612 -1.877911 10.545943 42 38 37
2.266851 -0.494914 8.457419 40 34 35
0.156309 -1.768366 10.675056 143 133 109
-0.162182 -1.368135 9.563524 163 165 166
2.203792 -0.515870 9.146766 174 176 176
0.150324 -1.206060 9.538872 171 173 174
0.053040 -1.335739 9.998813 188 180 167
0.068132 -1.273146 9.912522 48 43 44
-0.023750 -1.143369 9.599894 168 170 170
0.337060 -0.826458 9.070287 58 53 52
-0.041326 -1.108499 9.640408 164 169 168
-0.031718 -1.086699 9.607057 44 44 44
0.014628 -1.181191 10.123242 140 129 102
-0.006969 -0.988466 9.546287 53 49 48
0.216913 -1.241656 10.568201 172 177 175
0.586471 -1.327824 11.615449 142 146 147
0.356257 -1.394191 11.698837 159 161 161
2.155775 -0.024622 9.712516 40 34 35
-1.231501 -1.497722 10.738368 151 153 154
2.168614 0.121049 9.554263 165 167 168
2.986490 0.563369 9.192122 222 219 215
0.309387 -1.254624 11.877040 28 26 26
0.351083 -0.964698 11.058100 166 170 171
0.099699 -1.365072 12.040536 149 153 154
-1.268939 -1.473442 10.820477 28 26 26
0.308640 -1.198236 11.890026 143 147 148
0.272882 -1.139825 12.095265 169 174 175
0.164341 -0.714129 11.417749 193 195 195
2.446286 0.720463 9.870501 49 49 49
2.467953 0.851435 9.819884 139 140 138
2.442541 0.863720 9.755391 32 31 33
3.334423 1.660640 10.120975 167 169 170
3.502842 1.782354 10.040990 136 138 139
2.513471 1.226537 10.527819 48 50 50
2.163119 0.998266 10.883863 222 219 221
2.118487 1.031989 10.893896 50 48 48
2.469525 1.288687 10.571040 167 169 170
2.026949 1.049501 10.758433 230 216 194
1.954455 1.027714 10.828999 230 217 195
2.510033 1.360523 10.612480 69 68 58
2.595176 1.521848 10.380317 162 159 151
3.078808 1.958583 9.692936 45 46 44
1.901000 0.944135 11.698404 30 28 28
2.461933 1.531351 10.452039 31 29 28
1.993999 0.986380 11.997582 149 151 151
1.581737 0.990894 11.201865 34 33 35
2.469812 1.514737 10.874990 90 84 71
2.246824 1.630833 10.056430 61 57 56
1.838157 1.115917 11.985451 54 54 54
1.913832 1.476108 10.931246 30 29 31
2.012001 1.793544 9.910773 29 27 27
2.045445 1.947942 9.977781 54 49 50
-0.026881 0.786151 12.486509 161 144 118
-0.065933 0.826085 12.479113 60 58 48
0.837481 2.160134 12.983064 67 72 73
0.688744 -2.733519 10.992556 34 28 33
0.288928 -1.217650 12.006292 133 136 140
0.122446 -2.339767 10.647577 38 38 38
1.934971 -0.991919 9.197642 44 39 40
1.824213 -0.910195 9.262789 38 33 35
1.870801 -0.744903 9.098325 40 38 38
0.170965 -1.767468 10.672307 143 133 109
-0.016244 -1.439338 9.716336 52 46 47
-0.125350 -1.368063 9.628224 165 169 170
0.122818 -1.512817 10.233429 53 40 38
0.082450 -1.340382 9.758410 178 180 180
0.029551 -1.446729 10.031481 128 82 35
2.216863 -0.401849 9.063183 165 167 168
0.058229 -1.276942 9.908530 48 43 44
0.038448 -1.243140 9.803215 69 64 65
0.115087 -1.295815 10.342188 41 33 33
-0.030508 -1.104615 9.653974 158 160 160
0.221009 -0.835522 9.210820 37 35 35
0.001436 -0.991704 9.551943 58 53 54
0.349150 -1.387328 11.690737 150 152 152
2.203283 -0.041932 9.663424 160 164 165
2.178624 0.119321 9.551150 176 178 178
3.058080 0.562388 9.157851 100 104 105
0.311398 -1.301567 11.929617 164 168 169
2.991160 0.570934 9.201539 222 218 217
2.081999 0.085777 9.708454 36 34 34
0.431494 -1.194515 11.849732 34 29 30
0.310286 -1.234635 11.950823 28 26 26
2.930911 0.745856 9.119019 46 41 43
0.263357 -1.147789 12.088724 157 162 165
2.090046 0.229734 9.959316 143 147 148
2.517494 0.713616 9.425953 45 43 43
2.463850 0.849829 9.829974 144 145 143
2.447885 0.870654 9.761290 37 36 38
2.718270 1.195581 9.743980 152 154 155
-0.894209 -0.644572 11.326345 37 37 37
2.926072 1.522303 9.871568 157 159 160
2.163478 0.999692 10.754628 216 211 212
2.408042 1.290537 10.275042 59 61 62
1.575316 0.882131 10.945104 50 51 47
-0.985215 -0.482737 11.632968 49 49 49
2.550627 1.523610 10.780815 69 63 52
3.226641 2.132181 9.775294 165 164 166
1.821159 1.059021 11.823205 27 27 27
1.850324 1.529479 10.916325 159 163 164
0.605813 2.255142 12.691568 100 101 105
0.572999 2.242322 12.748981 153 155 156
0.247530 -2.317142 10.628968 143 148 149
2.140920 -0.592790 8.647854 47 42 41
0.213269 -1.703319 10.665146 35 30 31
0.069408 -1.325505 9.518960 57 53 52
0.109118 -1.359063 9.929811 39 37 37
0.129440 -1.205745 9.553653 173 175 176
0.181506 -1.622524 10.817466 33 30 32
0.052761 -1.145628 9.560760 172 174 175
0.119968 -1.026087 9.399910 175 177 178
0.114302 -1.257249 10.765059 28 26 26
0.347123 -1.440433 11.738993 28 26 26
0.366440 -1.368075 11.696541 159 161 162
0.316291 -1.404674 11.849187 138 140 140
0.588179 -1.233053 11.764475 165 167 168
0.355844 -1.288930 11.777026 159 163 164
0.281679 -1.324940 11.912842 162 166 167
3.006451 0.584985 9.222155 225 220 217
0.321705 -1.229824 11.969034 28 28 28
2.075399 0.169682 9.811700 65 63 63
2.221818 0.312306 9.724737 29 26 22
2.973062 0.768119 9.131704 51 46 47
2.115718 0.220837 9.945104 150 151 155
2.085380 0.208805 10.027308 41 39 39
2.177003 0.375925 9.763441 156 140 117
0.292058 -0.993730 11.983425 128 122 117
2.276522 0.735006 9.534895 141 137 132
2.481041 0.856556 9.868502 149 150 148
2.553521 0.989401 9.770495 129 135 140
-0.902630 -0.642864 11.332064 35 35 35
3.187401 1.816196 9.523021 139 132 113
2.468320 1.312270 10.659998 170 172 172
3.081351 1.959566 9.675499 50 48 47
1.964950 1.014461 11.976815 147 148 152
1.850615 1.067243 11.825921 34 32 32
1.903214 1.215323 11.380432 155 157 158
2.148046 1.536050 11.263521 39 39 39
0.160668 -1.001149 10.253737 42 40 40
0.206149 -2.240926 10.522238 149 153 154
1.924496 -0.804181 8.874144 41 36 35
2.174258 -0.594296 8.564494 139 127 121
2.168715 -0.591494 8.675763 43 38 37
0.083766 -1.333354 9.534478 73 65 65
2.225376 -0.573194 9.150410 171 173 173
2.173659 -0.508623 9.044298 31 31 31
0.094746 -1.292418 9.620157 167 171 172
0.125465 -1.193579 9.381026 44 42 42
0.342973 -1.262190 9.768292 163 165 166
2.227351 -0.356073 9.078206 163 165 166
2.159962 0.161163 9.602470 35 32 34
0.537492 -1.095646 11.920503 152 157 160
0.295040 -0.812227 10.888221 34 32 32
4.884935 1.486277 9.422985 177 179 180
2.407282 1.176596 10.131692 103 95 78
2.452096 1.426972 10.632017 54 51 46
1.975177 1.332083 11.310488 41 46 49
1.955527 1.478063 10.893594 37 33 32
1.920713 1.648935 10.727574 156 156 156
2.146025 -0.597490 8.720064 37 32 33
2.008413 -0.387933 8.760578 37 35 35
0.065228 -1.288731 9.930322 37 35 35
2.244930 -0.308370 9.079586 162 164 165
0.149160 -1.132022 9.971621 155 161 160
0.197444 -1.395063 11.905778 150 154 155
0.398599 -0.824999 10.729701 149 153 154
2.194798 0.376747 9.562807 154 151 143
2.288430 0.631068 9.724008 119 112 92
3.127979 1.853512 9.825048 136 120 91
2.291489 1.508724 10.487222 178 164 141
1.896449 1.276749 11.454971 113 116 120
1.926584 1.587327 11.068560 147 152 155
-0.103907 1.091841 12.834277 111 113 113
0.188174 -1.639508 10.727456 34 32 32
2.087866 -0.301101 9.013084 158 160 160
-0.027142 -1.082459 10.157803 38 37 39
2.361292 1.107956 10.324228 147 145 145
0.144142 -2.403070 10.725527 42 44 45
0.117484 -1.382891 10.265967 43 39 45
0.022943 -1.252535 9.982949 43 42 38
3.500715 1.083686 8.911070 91 89 89
0.822317 0.077449 11.099374 61 56 57
0.957153 0.211393 11.079585 147 146 142
1.032274 0.255576 11.038720 158 153 150
1.059002 0.270183 11.015907 54 51 47
0.973516 0.244040 11.083653 48 47 43
1.212417 0.432461 10.988649 70 67 63
2.194875 1.003606 10.852947 108 118 118
1.464983 0.720105 10.952867 47 46 42
-0.368467 -0.237539 11.993948 159 161 161
1.542627 0.816704 10.938602 79 78 74
3.162144 1.926149 9.558939 163 164 160
2.660692 3.233559 9.895762 67 68 72
-0.233330 1.645146 13.632523 107 99 86
0.296716 -2.337653 10.632098 148 155 158
0.167059 -1.975435 10.562173 169 170 168
2.731198 -0.880969 9.112016 52 47 48
1.923693 -1.000872 9.192452 50 45 46
0.182039 -1.733071 10.605267 35 30 31
0.038806 -1.307604 10.050039 171 167 156
0.078491 -1.231984 9.913313 181 168 142
-0.023889 -1.022769 9.561223 49 47 47
0.341862 -1.439314 11.726789 30 28 28
2.249959 -1.390843 13.999008 30 28 28
2.295540 -1.329525 13.986132 154 157 161
0.562040 -1.212030 11.738944 168 170 170
0.102381 -1.289690 12.144258 156 160 161
0.459545 -0.965030 11.903804 171 173 174
0.085637 -1.093087 12.188094 140 136 131
2.205554 0.265592 9.611009 138 135 131
2.152665 0.333016 9.682913 34 32 31
0.108915 -0.809026 11.744349 168 156 150
3.721574 1.324706 8.825274 94 91 83
-0.821240 -0.812275 11.148932 35 33 33
3.909765 1.667137 8.791345 128 123 114
-0.593493 -0.438489 11.399798 127 123 122
-0.868890 -0.527406 11.538522 133 131 131
2.117132 1.023665 10.796615 124 133 136
2.072740 1.016613 10.943402 65 60 59
3.174051 1.806406 9.431911 73 73 73
1.578697 0.901173 10.971360 77 76 72
2.453983 1.395636 10.356918 41 36 37
1.205126 0.594727 12.208118 27 32 35
2.481664 1.444596 10.651342 63 61 51
3.110229 1.873341 9.705515 164 152 128
2.658918 1.613975 10.428563 65 68 72
2.164477 1.388515 10.789834 92 85 66
3.083378 2.025092 9.965243 58 57 53
1.964310 1.518171 11.033104 145 146 150
1.843809 1.509752 10.905291 160 162 162
3.054473 2.404544 9.742857 48 44 43
-0.233694 0.755708 12.565799 61 58 54
2.620784 3.199454 9.916722 39 41 42
0.160421 2.431491 12.295917 65 69 70
0.546644 -2.469188 10.551505 42 38 37
0.287924 -2.333704 10.631753 152 159 162
0.217231 -2.263585 10.486720 154 159 160
0.156186 -1.830925 10.531473 185 175 151
0.118645 -1.305505 9.475224 110 173 187
0.117730 -1.244127 9.463485 44 39 40
0.044270 -1.375304 9.893455 40 35 36
0.030819 -1.138926 9.538264 162 166 167
0.021291 -1.247449 10.078859 200 189 161
-0.012855 -1.185884 10.096215 148 135 113
0.183248 -0.809097 9.151966 36 35 37
2.264012 -1.174271 14.126856 167 169 170
0.067841 -1.353217 12.088137 30 28 28
2.162347 0.022355 9.588493 171 169 168
0.541970 -1.060855 11.930167 144 147 151
2.127582 -0.001048 9.775141 31 28 30
2.118771 0.075837 9.796391 173 177 178
2.253107 0.300814 9.553507 96 98 98
3.013940 0.764862 9.320025 51 48 50
3.538997 1.110961 8.691843 42 39 41
3.634779 1.254652 8.749213 149 135 112
-0.814634 -0.872101 11.144283 147 138 135
2.433173 0.729056 9.866234 65 67 67
2.381275 0.845371 9.541082 37 37 37
-0.874941 -0.532028 11.534274 127 125 125
2.498103 1.148705 10.479136 207 202 201
2.124692 1.021856 10.806821 129 136 139
2.468600 1.212674 10.513067 65 67 68
2.020670 0.996632 10.899645 44 39 40
3.111683 1.807635 9.533416 135 128 109
3.065338 1.856053 9.698781 164 150 127
3.316823 2.011110 9.482294 55 50 51
2.463374 1.521973 10.445450 26 24 24
1.127697 0.689505 12.245992 53 55 55
3.114580 2.039413 9.983016 58 57 53
0.132337 0.661389 12.693491 108 99 72
-0.095867 0.706726 12.461428 84 80 69
-0.152145 0.914217 12.575145 153 139 116
2.722838 3.125573 9.893286 67 63 62
2.639989 3.210546 9.914862 47 47 47
0.310620 -2.338929 10.547022 29 27 27
2.718981 -0.863722 9.101804 50 45 46
0.150344 -1.816963 10.535195 187 180 161
2.188601 -0.511604 8.524746 44 39 36
0.119659 -1.243792 9.458545 51 45 46
2.198560 -0.499670 9.074154 33 32 34
0.101443 -1.197969 9.925923 163 165 166
0.141143 -1.094127 10.153656 39 37 37
0.127254 -0.688288 9.351931 69 64 63
0.262447 -1.197005 12.061344 142 146 147
2.216319 0.118391 9.547432 166 168 169
0.288745 -1.098959 12.050826 29 27 26
2.142015 0.115924 9.723043 34 34 34
3.006066 0.613584 9.034409 229 221 221
3.483439 1.043839 8.963992 151 151 151
2.161505 0.966759 10.903299 224 221 217
2.383543 1.254860 10.234832 39 38 40
3.328246 2.024196 9.508366 51 46 45
1.960634 1.472222 10.922983 25 25 25
3.157314 2.245136 9.713276 42 37 36
2.781457 3.159983 9.924603 51 49 49
2.658886 3.202514 9.922657 70 65 66
0.050500 1.705206 13.567789 179 167 143
0.232529 -2.149321 10.418056 72 67 66
1.882552 -0.973403 9.193497 36 32 31
1.987553 -0.874704 9.060016 42 37 38
0.041188 -1.407205 9.623737 62 55 52
0.089742 -1.300433 9.804934 161 163 164
0.031783 -1.165962 9.552923 168 170 171
0.059123 -1.274895 10.212582 125 79 38
0.032846 -1.219741 10.084373 184 173 146
0.154619 -1.007563 9.413947 165 167 168
0.153830 -1.401054 11.975506 147 151 152
0.356769 -1.142729 11.921127 136 138 139
0.431427 -0.845090 10.755392 150 155 156
0.241612 -1.194234 12.077715 147 149 150
0.291191 -1.096133 12.052674 27 25 24
2.060489 0.097168 9.671142 35 37 37
2.960621 0.652000 9.174799 213 208 205
2.928694 0.723548 9.092472 35 39 40
-1.043994 -0.548718 11.575688 39 39 39
1.549458 0.954502 11.232217 39 40 38
2.702829 1.921858 10.703100 39 36 38
3.113456 2.239872 9.673396 65 58 55
-0.393585 1.855040 13.839766 76 78 79
0.198911 -1.937092 10.555350 39 34 35
1.830849 -0.916987 9.199001 34 29 30
1.858805 -0.812703 8.902182 36 34 34
2.244522 -0.580816 8.596910 137 125 119
1.875349 -0.773680 9.122816 37 35 35
2.292546 -0.431266 8.528893 33 28 29
0.046748 -1.203647 9.570296 167 169 170
2.219282 0.192183 9.659779 36 33 35
2.985599 0.750267 8.903361 43 41 41
-0.857626 -0.488661 11.461323 35 35 35
-0.371945 -0.262290 11.845883 37 37 37
2.083452 0.974112 10.968581 218 214 213
-0.474104 -0.133127 11.702230 140 140 140
1.965613 1.537346 10.871869 65 58 61
2.920535 2.733346 9.956348 131 132 130
0.024083 -1.049217 9.531132 68 63 62
0.192781 -1.355076 11.939989 148 152 153
2.995805 0.578191 9.067398 135 132 134
-0.666980 -0.847725 11.114916 172 165 162
2.279396 1.636722 10.719838 163 167 162
0.752462 1.575274 13.389169 77 75 65
0.617962 2.250146 12.756958 127 129 130
0.029284 2.491827 12.129095 143 145 145
0.149968 -1.834910 10.522189 193 182 155
2.200585 -0.561659 8.459719 137 127 120
0.150475 -1.237878 9.356008 86 79 76
-0.004689 -1.380031 9.994693 128 84 37
0.035960 -1.221173 9.457387 151 155 156
0.040363 -1.032350 9.429617 34 33 35
0.344254 -0.850483 9.053165 77 72 69
0.364397 -1.273248 11.854026 164 169 170
0.585484 -1.156669 11.776616 31 26 27
0.321714 -1.239602 11.962358 29 27 27
0.556057 -1.132082 11.834604 163 165 166
-0.011091 -1.141929 12.333550 199 201 201
2.077780 0.172692 9.976453 50 45 46
2.196953 0.298815 9.720760 34 29 28
3.724404 1.314770 8.866568 158 156 156
-0.485932 -0.398639 11.309712 115 113 113
1.011068 0.211031 11.009497 132 132 126
-1.004234 -0.484878 11.620522 39 40 38
0.167911 -0.020720 11.600121 40 41 39
2.584387 1.186469 9.636841 163 163 163
2.585553 1.209357 10.095393 186 182 181
-0.642998 -0.151617 11.975925 43 38 39
2.431745 1.188254 10.473698 39 41 42
1.978104 1.374013 10.892342 183 166 139
1.927015 1.451870 10.928466 31 27 26
3.113635 2.096741 10.200834 77 82 81
3.107689 2.296622 9.675624 114 108 103
3.036341 2.417960 9.792466 167 157 140
3.157917 2.493133 9.887856 195 174 143
3.168551 2.515729 9.986299 202 185 159
-0.526119 1.838948 13.976390 136 140 141
0.331638 -2.502556 10.706453 139 143 144
0.337841 -2.328783 10.601966 40 38 38
0.142319 -1.739319 10.708592 33 30 32
0.105559 -1.423853 10.260251 143 140 135
0.018689 -1.266557 9.980643 50 45 42
2.130866 -0.505621 9.057073 35 34 36
-0.033802 -1.154145 9.589757 160 164 165
0.353898 -1.440789 11.741171 29 27 27
0.030129 -1.163543 10.032231 142 132 108
0.109817 -0.987591 9.262100 169 173 174
0.041956 -1.030219 9.434379 29 29 29
0.339676 -1.122748 11.999338 176 180 181
0.278244 -1.151849 12.104951 160 164 165
0.095906 -1.214830 12.217032 159 161 162
0.101633 -1.089167 12.211638 121 114 111
0.381242 -0.770396 10.916938 40 39 41
2.188236 0.305220 9.714578 42 38 33
2.035853 0.263255 9.876084 33 39 38
2.875273 0.699665 9.048541 80 82 83
2.505778 0.731554 9.423301 42 39 41
-0.385248 -0.357525 11.161997 73 73 73
-0.604405 -0.447941 11.380374 163 159 158
0.367642 -0.009792 11.468077 171 172 170
2.794793 1.274426 9.912612 180 178 177
-0.764291 -0.158279 12.033470 162 166 167
2.444220 1.303646 10.289770 42 38 37
3.222309 1.727181 9.984603 51 54 52
3.125751 1.981021 9.528286 164 159 150
1.926808 1.450960 10.919736 34 29 30
2.981276 2.610064 9.769871 45 45 45
-0.053264 1.704794 13.686709 193 179 150
0.839658 2.157563 12.986322 75 77 78
0.636858 2.270535 12.724257 72 76 77
0.191176 -1.897976 10.533257 41 36 37
2.278449 -0.563831 8.526503 142 132 125
0.041333 -1.398515 10.066678 120 80 45
2.338690 -0.467111 8.508209 35 30 31
0.392539 -1.367715 11.722143 163 167 168
0.300407 -1.409585 11.837729 152 156 157
0.381736 -1.289530 11.803262 161 163 163
0.070445 -1.352450 12.089002 26 23 25
2.148454 -0.083437 9.636992 152 154 155
0.082649 -1.074561 12.194717 94 87 84
0.236490 -0.769095 10.971563 122 110 86
2.019782 0.265336 9.858078 34 48 54
2.824291 0.870055 9.512370 166 165 161
2.406974 0.881028 9.749843 36 38 38
2.833553 1.334614 10.012014 28 31 35
2.439976 1.207599 10.505519 77 79 80
2.410583 1.436994 10.625267 76 71 62
2.457748 1.503361 10.429869 30 25 27
2.382915 1.532887 10.513275 169 154 135
3.219101 1.914399 9.495907 50 46 45
1.995919 1.454912 10.877256 40 37 39
3.149648 2.119869 10.105007 155 160 159
1.916304 1.647126 10.752937 156 158 159
3.328456 2.272665 9.560002 123 124 122
-0.276818 0.958099 12.777331 49 51 51
3.042070 2.495946 9.861985 178 157 129
2.344261 -0.265458 8.771766 39 37 37
2.625421 -0.861948 8.854800 75 70 69
1.918416 -0.813653 8.740471 130 118 112
2.334116 -0.458463 8.524554 34 29 30
0.115995 -1.533861 11.971976 32 30 29
0.279627 -1.391967 11.871970 160 164 169
0.033880 -1.480261 12.092550 165 169 170
0.133631 -1.234647 12.163291 161 166 165
1.794813 1.066601 11.876155 55 53 53
2.808355 1.622056 10.072240 47 49 49
-1.271731 0.743915 12.775291 143 145 146
-0.245133 1.883878 13.790271 53 55 56
2.595177 -0.847969 8.856809 74 69 68
-0.024218 -1.052657 9.512791 72 67 68
0.090264 -1.350635 12.146147 30 25 26
2.111527 0.287251 9.776157 135 128 108
3.399044 1.763823 9.733036 183 165 142
2.346738 1.534293 10.519479 177 163 141
3.321847 1.999003 9.538280 52 47 46
3.120264 1.930947 9.658941 49 44 41
0.581468 1.918241 13.691624 64 68 69
1.874692 -0.802092 8.967010 36 34 34
2.415627 0.624707 9.056249 43 38 40
2.341249 1.291740 10.591069 109 105 94
0.922802 0.096241 11.025514 50 49 45
1.095957 0.328918 11.043136 150 147 143
3.984023 1.475878 8.606881 118 113 115
2.599445 1.127759 10.029351 109 104 95
1.510921 0.781143 10.973573 49 48 44
2.271099 1.632591 10.792027 168 170 171
3.167208 1.924974 9.560359 161 164 162
-0.056806 1.288399 12.267568 107 99 86
0.413662 1.701929 13.601123 96 87 73
-0.166651 -1.726977 12.120131 169 171 171
1.733917 -1.602875 14.887150 31 26 27
0.348889 -1.437643 11.731868 32 27 28
-0.134946 -1.600119 12.201819 151 155 156
0.133122 -1.489328 11.924365 166 171 172
0.067235 -1.106225 9.456133 73 69 68
0.038200 -1.073140 9.427105 207 204 199
0.079060 -1.052954 9.428858 71 69 69
1.705389 -1.332486 15.234138 32 26 27
0.342136 -1.194237 11.921727 165 167 168
0.025546 -1.240359 12.301373 154 156 157
0.095042 -1.212575 12.235145 164 168 169
0.050984 -1.194294 12.279790 31 27 26
-0.448421 -1.233513 12.053124 45 41 40
0.410228 -0.764998 10.951044 46 46 46
0.235630 -0.793413 10.967140 113 105 82
-0.385568 -1.071435 12.174819 46 44 44
2.233719 0.111150 9.618454 74 71 73
3.056873 0.585685 9.050631 229 222 219
0.358856 -0.242105 11.551991 33 31 30
-0.908465 -0.541194 11.464494 76 72 71
0.377160 -0.021294 11.560825 151 153 154
0.352981 -0.017107 11.435270 171 167 166
0.413870 0.010916 11.385605 179 177 177
0.348290 0.023594 11.542199 36 38 39
1.054845 0.277147 11.029016 72 70 69
-0.510896 -0.233805 11.846087 76 78 78
2.345486 0.825931 9.515896 37 36 38
-0.536437 -0.151549 11.773262 132 136 137
2.419883 0.874596 9.753038 34 31 33
3.913376 1.606129 8.741804 50 48 48
2.629418 1.179697 10.082813 188 186 186
1.184810 0.716151 12.341832 51 49 49
2.272664 1.071503 10.451010 205 201 200
2.660883 1.251157 9.652617 31 33 34
2.419273 1.526387 10.913145 140 131 127
-0.064466 0.723480 12.514403 65 59 46
-0.045436 0.724431 12.359490 64 67 58
-0.058774 0.825797 12.488082 63 63 51
3.293446 1.997219 9.455162 55 54 56
3.071087 1.946871 9.688009 45 40 41
1.870163 1.600169 10.796509 42 42 42
3.161511 2.171760 9.620769 170 171 175
3.119110 2.285455 9.773571 152 152 152
3.142698 2.344101 9.617937 138 142 143
3.115638 2.418514 9.634747 204 187 154
3.504795 2.699699 10.461652 204 187 161
0.058908 1.710080 13.664314 194 179 153
3.054826 2.554598 9.689602 41 39 38
0.682502 2.233262 12.835588 80 82 83
0.654573 2.278859 12.750031 73 77 78
2.489757 1.540366 10.447757 27 27 27
0.031644 -1.423796 9.582130 71 64 61
0.140237 -1.482607 11.931914 165 170 169
